-2693.459 -2638.223 -2609.436 -2581.508 -2546.568 -2505.190 -2452.926 -2387.697 -2310.035 -2222.503 -2135.055 -2044.119 -1946.810 -1845.668 -1745.592 -1649.148 -1555.657 -1462.672 -1366.371 -1261.579 -1143.849 -1013.977 -882.901 -770.113 -689.415 -637.745 -603.295 -577.105 -554.008 -530.940 -506.935 -482.340 -457.707 -433.526 -410.344 -389.170 -371.802 -359.205 -349.904 -341.680 -333.551 -325.438 -317.548 -310.363 -304.518 -300.394 -297.705 -295.661 -293.558 -291.122 -288.479 -285.929 -283.623 -281.366 -278.780 -275.590 -271.728 -267.248 -262.186 -256.508 -250.190 -243.445 -236.751 -230.458 -224.507 -218.588 -212.413 -205.969 -199.592 -193.745 -188.885 -185.287 -182.864 -181.347 -180.406 -179.481 -177.901 -175.430 -172.647 -170.608 -169.941 -170.259 -170.572 -170.140 -168.929 -167.183 -164.702 -161.107 -156.661 -152.167 -148.215 -144.822 -141.716 -138.752 -135.962 -133.352 -130.783 -128.040 -125.059 -121.983 -118.773 -115.109 -111.283 -108.414 -106.902 -105.826 -104.370 -102.589 -100.767 -98.933 -96.969 -94.790 -92.322 -89.409 -85.921 -81.908 -77.337 -71.690 -64.587 -56.901 -50.181 -44.730 -39.254 -32.798 -26.149 -20.532 -16.093 -12.719 -10.850 -10.850
-2694.372 -2639.090 -2604.568 -2576.612 -2546.014 -2504.986 -2451.030 -2377.710 -2290.639 -2200.049 -2108.597 -2016.184 -1920.730 -1822.509 -1724.385 -1628.306 -1533.965 -1439.369 -1341.362 -1235.617 -1117.805 -987.292 -854.268 -740.747 -663.104 -616.840 -587.295 -564.608 -543.980 -522.822 -500.537 -477.670 -454.798 -432.287 -410.525 -390.464 -373.830 -361.458 -351.941 -343.339 -334.874 -326.518 -318.478 -311.121 -304.889 -300.140 -296.854 -294.488 -292.351 -290.083 -287.716 -285.433 -283.320 -281.267 -279.004 -276.199 -272.575 -268.017 -262.568 -256.343 -249.494 -242.355 -235.456 -229.150 -223.323 -217.550 -211.471 -205.106 -198.861 -193.179 -188.351 -184.578 -181.948 -180.321 -179.300 -178.295 -176.711 -174.365 -171.803 -169.966 -169.356 -169.599 -169.834 -169.417 -168.317 -166.780 -164.641 -161.458 -157.313 -152.905 -148.872 -145.330 -142.051 -138.899 -135.957 -133.321 -130.912 -128.555 -126.132 -123.619 -120.921 -117.860 -114.626 -111.869 -109.838 -108.081 -106.198 -104.236 -102.372 -100.606 -98.747 -96.606 -94.084 -91.100 -87.600 -83.594 -78.965 -73.260 -66.369 -59.421 -53.842 -49.355 -44.169 -37.488 -30.376 -23.866 -18.116 -13.530 -10.968 -10.968
-2695.294 -2639.949 -2599.630 -2571.525 -2540.633 -2503.213 -2437.276 -2357.272 -2267.120 -2172.888 -2079.212 -1986.059 -1891.909 -1796.118 -1699.992 -1604.795 -1510.322 -1415.016 -1316.328 -1210.670 -1093.773 -963.314 -828.081 -712.798 -637.556 -596.667 -571.929 -552.331 -533.712 -514.184 -493.505 -472.284 -451.071 -430.160 -409.863 -391.080 -375.353 -363.285 -353.582 -344.649 -335.901 -327.362 -319.234 -311.792 -305.321 -300.126 -296.347 -293.675 -291.482 -289.309 -287.053 -284.807 -282.679 -280.699 -278.739 -276.432 -273.214 -268.635 -262.722 -255.883 -248.555 -241.138 -234.099 -227.772 -222.046 -216.429 -210.495 -204.274 -198.204 -192.697 -187.907 -183.962 -181.105 -179.359 -178.291 -177.250 -175.675 -173.411 -170.956 -169.162 -168.470 -168.538 -168.644 -168.289 -167.433 -166.219 -164.456 -161.680 -157.840 -153.539 -149.439 -145.744 -142.286 -138.955 -135.901 -133.302 -131.085 -129.035 -126.997 -124.888 -122.637 -120.164 -117.520 -114.954 -112.621 -110.421 -108.239 -106.119 -104.190 -102.454 -100.675 -98.562 -95.990 -92.973 -89.541 -85.693 -81.319 -76.133 -70.167 -64.294 -59.358 -54.825 -49.354 -42.492 -34.758 -26.800 -19.492 -13.926 -10.928 -10.928
-2691.573 -2640.800 -2594.617 -2566.225 -2533.089 -2486.781 -2415.379 -2333.481 -2240.514 -2143.691 -2048.014 -1954.727 -1861.498 -1767.457 -1673.113 -1579.114 -1485.164 -1389.972 -1291.504 -1186.838 -1071.873 -942.643 -805.937 -688.625 -614.957 -578.626 -557.868 -540.523 -523.296 -505.109 -485.956 -466.330 -446.662 -427.198 -408.267 -390.794 -376.094 -364.451 -354.668 -345.518 -336.607 -327.989 -319.842 -312.359 -305.729 -300.212 -296.044 -293.096 -290.801 -288.594 -286.250 -283.837 -281.525 -279.463 -277.672 -275.839 -273.128 -268.632 -262.290 -254.901 -247.241 -239.708 -232.609 -226.251 -220.607 -215.195 -209.506 -203.508 -197.611 -192.215 -187.439 -183.370 -180.315 -178.425 -177.303 -176.261 -174.723 -172.505 -170.049 -168.161 -167.303 -167.215 -167.294 -167.120 -166.589 -165.718 -164.301 -161.868 -158.286 -154.089 -149.957 -146.157 -142.586 -139.157 -136.055 -133.513 -131.454 -129.604 -127.766 -125.850 -123.827 -121.682 -119.411 -117.080 -114.780 -112.531 -110.315 -108.168 -106.201 -104.441 -102.672 -100.579 -98.009 -95.013 -91.683 -88.050 -84.062 -79.552 -74.511 -69.370 -64.509 -59.570 -53.720 -46.332 -37.377 -27.869 -19.560 -13.670 -10.620 -10.620
-2685.513 -2637.399 -2589.534 -2555.963 -2515.318 -2468.032 -2397.989 -2307.580 -2212.243 -2113.572 -2016.557 -1922.761 -1830.202 -1737.423 -1644.596 -1552.026 -1459.174 -1364.809 -1267.272 -1164.258 -1052.066 -925.766 -790.067 -672.062 -598.762 -564.510 -545.704 -529.366 -512.857 -495.723 -477.989 -459.881 -441.633 -423.434 -405.694 -389.464 -375.885 -364.857 -355.197 -346.004 -337.066 -328.462 -320.336 -312.828 -306.075 -300.308 -295.823 -292.611 -290.145 -287.769 -285.189 -282.492 -279.898 -277.603 -275.731 -274.085 -271.730 -267.397 -260.867 -253.200 -245.445 -237.963 -230.901 -224.531 -218.956 -213.776 -208.417 -202.708 -196.969 -191.619 -186.846 -182.736 -179.558 -177.509 -176.296 -175.273 -173.808 -171.631 -169.111 -167.052 -166.033 -165.937 -166.204 -166.335 -166.095 -165.445 -164.240 -162.039 -158.642 -154.548 -150.446 -146.636 -143.065 -139.660 -136.586 -134.076 -132.067 -130.272 -128.478 -126.608 -124.657 -122.643 -120.579 -118.485 -116.393 -114.311 -112.219 -110.140 -108.171 -106.364 -104.576 -102.526 -100.025 -97.096 -93.861 -90.407 -86.738 -82.740 -78.286 -73.462 -68.432 -63.027 -56.507 -47.914 -37.399 -26.885 -18.453 -12.864 -10.084 -10.084
-2679.444 -2631.257 -2582.834 -2538.348 -2497.194 -2448.636 -2379.794 -2285.165 -2183.404 -2083.189 -1985.239 -1890.869 -1798.453 -1706.689 -1615.313 -1524.478 -1433.271 -1340.323 -1244.213 -1143.211 -1034.276 -912.580 -781.274 -665.019 -590.733 -555.032 -535.508 -518.902 -502.553 -486.199 -469.710 -452.980 -436.018 -418.957 -402.330 -387.352 -374.978 -364.714 -355.345 -346.244 -337.374 -328.831 -320.738 -313.208 -306.350 -300.375 -295.609 -292.125 -289.418 -286.778 -283.898 -280.894 -277.986 -275.357 -273.155 -271.287 -268.918 -264.736 -258.360 -250.804 -243.185 -235.881 -228.955 -222.647 -217.156 -212.199 -207.181 -201.779 -196.181 -190.838 -186.065 -181.982 -178.759 -176.570 -175.249 -174.249 -172.901 -170.820 -168.266 -166.061 -164.958 -165.006 -165.610 -166.085 -166.020 -165.365 -164.120 -161.969 -158.707 -154.767 -150.799 -147.102 -143.652 -140.382 -137.400 -134.892 -132.824 -130.960 -129.114 -127.228 -125.309 -123.385 -121.482 -119.609 -117.752 -115.867 -113.907 -111.890 -109.920 -108.078 -106.288 -104.306 -101.899 -99.040 -95.877 -92.549 -89.098 -85.424 -81.308 -76.608 -71.298 -65.143 -57.329 -47.091 -35.377 -24.686 -16.760 -11.802 -9.465 -9.465
-2673.456 -2625.524 -2576.927 -2526.681 -2478.861 -2428.938 -2361.280 -2262.704 -2157.130 -2052.921 -1954.166 -1859.225 -1766.805 -1675.848 -1586.139 -1497.487 -1408.439 -1317.335 -1222.934 -1124.055 -1018.474 -902.274 -777.678 -665.147 -589.080 -549.244 -526.887 -509.077 -492.534 -476.749 -461.296 -445.755 -429.949 -414.000 -398.584 -384.971 -373.832 -364.338 -355.305 -346.356 -337.589 -329.122 -321.062 -313.510 -306.556 -300.397 -295.369 -291.596 -288.596 -285.656 -282.483 -279.195 -275.975 -272.965 -270.293 -267.916 -265.210 -261.084 -255.073 -247.903 -240.575 -233.520 -226.818 -220.675 -215.324 -210.575 -205.854 -200.724 -195.242 -189.876 -185.092 -181.064 -177.852 -175.570 -174.153 -173.171 -171.981 -170.113 -167.690 -165.498 -164.400 -164.579 -165.442 -166.156 -166.133 -165.270 -163.732 -161.453 -158.308 -154.606 -150.874 -147.385 -144.128 -141.039 -138.176 -135.672 -133.522 -131.565 -129.653 -127.747 -125.860 -124.024 -122.272 -120.606 -118.974 -117.272 -115.413 -113.425 -111.444 -109.583 -107.807 -105.891 -103.557 -100.739 -97.608 -94.355 -91.061 -87.627 -83.752 -79.121 -73.452 -66.180 -56.495 -44.509 -32.213 -22.034 -14.937 -10.724 -8.884 -8.884
-2667.835 -2619.815 -2570.996 -2520.299 -2465.891 -2409.094 -2341.089 -2240.205 -2131.089 -2024.224 -1923.476 -1827.972 -1735.506 -1645.553 -1558.012 -1472.048 -1385.497 -1296.430 -1203.852 -1107.092 -1004.742 -894.103 -776.932 -669.118 -591.280 -546.059 -519.519 -499.841 -482.899 -467.567 -452.992 -438.472 -423.728 -408.935 -394.872 -382.696 -372.714 -363.889 -355.171 -346.388 -337.735 -329.343 -321.314 -313.739 -306.699 -300.371 -295.092 -291.017 -287.704 -284.473 -281.045 -277.505 -273.980 -270.576 -267.393 -264.408 -261.209 -257.019 -251.375 -244.669 -237.701 -230.947 -224.543 -218.677 -213.551 -209.004 -204.514 -199.599 -194.206 -188.799 -183.970 -179.980 -176.810 -174.492 -173.014 -172.049 -171.038 -169.509 -167.458 -165.515 -164.479 -164.616 -165.465 -166.196 -166.094 -164.961 -163.070 -160.611 -157.581 -154.154 -150.688 -147.408 -144.322 -141.380 -138.614 -136.130 -133.955 -131.977 -130.064 -128.172 -126.318 -124.545 -122.899 -121.386 -119.931 -118.385 -116.623 -114.681 -112.722 -110.878 -109.136 -107.291 -105.038 -102.256 -99.118 -95.876 -92.675 -89.427 -85.759 -81.219 -75.201 -66.648 -54.919 -41.384 -28.932 -19.499 -13.256 -9.768 -8.402 -8.402
-2659.929 -2614.095 -2565.048 -2513.886 -2458.209 -2393.916 -2318.853 -2217.706 -2105.033 -1995.173 -1893.015 -1797.197 -1705.089 -1616.772 -1532.025 -1449.052 -1365.004 -1277.943 -1187.237 -1092.619 -993.350 -887.972 -778.195 -675.697 -596.551 -545.305 -513.416 -491.192 -473.684 -458.771 -445.012 -431.427 -417.706 -404.110 -391.453 -380.658 -371.676 -363.398 -354.963 -346.351 -337.811 -329.492 -321.491 -313.895 -306.777 -300.297 -294.779 -290.404 -286.787 -283.300 -279.650 -275.871 -272.046 -268.252 -264.565 -260.975 -257.240 -252.870 -247.472 -241.187 -234.598 -228.186 -222.154 -216.678 -211.870 -207.530 -203.196 -198.426 -193.113 -187.675 -182.767 -178.755 -175.619 -173.321 -171.839 -170.900 -170.052 -168.906 -167.378 -165.852 -164.918 -164.874 -165.457 -165.980 -165.728 -164.420 -162.303 -159.715 -156.780 -153.598 -150.366 -147.241 -144.253 -141.377 -138.646 -136.171 -134.017 -132.097 -130.263 -128.441 -126.637 -124.901 -123.293 -121.835 -120.459 -119.012 -117.360 -115.521 -113.652 -111.882 -110.217 -108.487 -106.373 -103.682 -100.564 -97.320 -94.155 -91.009 -87.492 -83.094 -76.939 -67.468 -54.165 -39.452 -26.817 -17.786 -12.060 -9.075 -8.063 -8.063
-2630.251 -2606.655 -2559.082 -2507.448 -2450.493 -2383.664 -2300.373 -2194.476 -2077.654 -1966.088 -1862.987 -1767.181 -1676.401 -1590.719 -1509.293 -1429.197 -1347.317 -1262.104 -1173.337 -1080.982 -984.740 -884.258 -781.562 -684.735 -604.848 -547.199 -508.809 -483.203 -464.892 -450.399 -437.460 -424.795 -412.094 -399.703 -388.408 -378.851 -370.694 -362.862 -354.687 -346.243 -337.813 -329.562 -321.586 -313.971 -306.787 -300.171 -294.433 -289.778 -285.895 -282.188 -278.334 -274.314 -270.186 -266.012 -261.847 -257.690 -253.419 -248.770 -243.464 -237.505 -231.283 -225.239 -219.635 -214.640 -210.244 -206.138 -201.901 -197.203 -191.968 -186.549 -181.559 -177.436 -174.278 -172.049 -170.634 -169.735 -168.999 -168.162 -167.117 -166.024 -165.241 -165.024 -165.258 -165.475 -165.093 -163.755 -161.557 -158.876 -155.982 -152.975 -149.933 -146.930 -143.993 -141.130 -138.394 -135.910 -133.777 -131.929 -130.202 -128.482 -126.743 -125.025 -123.401 -121.920 -120.552 -119.172 -117.647 -115.962 -114.230 -112.569 -111.004 -109.411 -107.487 -104.985 -101.996 -98.833 -95.724 -92.636 -89.217 -84.973 -78.965 -69.351 -55.410 -39.876 -26.673 -17.392 -11.632 -8.763 -7.892 -7.892
-2600.438 -2576.854 -2551.644 -2500.941 -2442.747 -2373.379 -2280.054 -2168.876 -2050.317 -1937.158 -1833.503 -1738.370 -1650.105 -1568.177 -1490.353 -1412.736 -1332.567 -1249.018 -1162.243 -1072.317 -979.193 -883.337 -787.155 -695.885 -615.833 -551.935 -506.129 -476.080 -456.549 -442.459 -430.368 -418.633 -406.958 -395.754 -385.721 -377.221 -369.726 -362.268 -354.341 -346.065 -337.738 -329.549 -321.598 -313.970 -306.730 -299.998 -294.061 -289.163 -285.060 -281.168 -277.114 -272.846 -268.415 -263.871 -259.256 -254.579 -249.793 -244.788 -239.425 -233.676 -227.783 -222.116 -216.965 -212.498 -208.581 -204.758 -200.611 -195.942 -190.783 -185.444 -180.406 -176.119 -172.879 -170.738 -169.443 -168.600 -167.921 -167.252 -166.513 -165.747 -165.135 -164.830 -164.788 -164.742 -164.275 -162.970 -160.761 -158.011 -155.107 -152.194 -149.286 -146.386 -143.501 -140.662 -137.944 -135.476 -133.368 -131.575 -129.937 -128.311 -126.631 -124.910 -123.237 -121.707 -120.342 -119.045 -117.674 -116.164 -114.578 -113.017 -111.529 -110.042 -108.318 -106.086 -103.344 -100.369 -97.396 -94.413 -91.110 -86.993 -81.178 -71.894 -58.082 -42.079 -28.059 -18.083 -11.886 -8.803 -7.877 -7.877
-2570.465 -2546.897 -2521.728 -2492.955 -2433.220 -2352.276 -2255.346 -2142.436 -2022.554 -1908.411 -1804.578 -1710.909 -1626.219 -1548.799 -1474.681 -1399.257 -1320.518 -1238.512 -1153.721 -1066.326 -976.467 -885.102 -794.768 -708.583 -629.032 -559.750 -506.040 -470.266 -448.788 -434.992 -423.771 -412.973 -402.327 -392.269 -383.360 -375.714 -368.735 -361.604 -353.923 -345.814 -337.583 -329.452 -321.533 -313.907 -306.634 -299.813 -293.711 -288.607 -284.323 -280.264 -276.007 -271.485 -266.752 -261.855 -256.823 -251.669 -246.388 -240.971 -235.413 -229.744 -224.126 -218.836 -214.149 -210.208 -206.772 -203.260 -199.241 -194.629 -189.573 -184.370 -179.368 -174.976 -171.653 -169.575 -168.391 -167.600 -166.937 -166.305 -165.670 -165.067 -164.581 -164.263 -164.073 -163.847 -163.261 -161.922 -159.719 -156.973 -154.076 -151.199 -148.351 -145.511 -142.686 -139.922 -137.297 -134.912 -132.862 -131.124 -129.564 -128.027 -126.401 -124.666 -122.926 -121.341 -119.988 -118.787 -117.573 -116.229 -114.769 -113.281 -111.835 -110.417 -108.869 -106.922 -104.479 -101.763 -99.019 -96.239 -93.132 -89.156 -83.438 -74.458 -61.009 -44.821 -30.058 -19.304 -12.539 -9.096 -7.998 -7.998
-2540.333 -2516.774 -2491.644 -2465.245 -2411.613 -2329.158 -2230.545 -2115.754 -1994.344 -1879.602 -1776.229 -1684.656 -1604.172 -1531.586 -1461.194 -1387.977 -1310.673 -1230.180 -1147.326 -1062.461 -975.924 -888.912 -803.772 -722.132 -643.857 -570.695 -509.313 -466.596 -442.074 -428.214 -417.795 -407.895 -398.247 -389.255 -381.287 -374.281 -367.693 -360.862 -353.433 -345.490 -337.349 -329.274 -321.398 -313.803 -306.539 -299.681 -293.471 -288.202 -283.744 -279.504 -275.030 -270.253 -265.234 -260.014 -254.606 -249.014 -243.248 -237.363 -231.481 -225.753 -220.345 -215.441 -211.222 -207.759 -204.729 -201.506 -197.670 -193.206 -188.332 -183.346 -178.520 -174.196 -170.867 -168.781 -167.614 -166.843 -166.168 -165.484 -164.800 -164.204 -163.766 -163.467 -163.217 -162.838 -162.043 -160.561 -158.367 -155.707 -152.875 -150.024 -147.188 -144.368 -141.607 -138.971 -136.510 -134.263 -132.297 -130.628 -129.160 -127.731 -126.179 -124.445 -122.640 -120.986 -119.624 -118.491 -117.397 -116.181 -114.809 -113.363 -111.937 -110.555 -109.114 -107.380 -105.223 -102.815 -100.389 -97.905 -95.075 -91.363 -85.874 -77.214 -64.118 -47.840 -32.429 -20.899 -13.517 -9.625 -8.258 -8.258
-2513.014 -2486.472 -2465.465 -2440.875 -2396.208 -2306.480 -2205.671 -2088.977 -1966.201 -1850.726 -1748.236 -1659.330 -1583.350 -1515.655 -1449.102 -1378.278 -1302.580 -1223.633 -1142.656 -1060.243 -976.956 -894.060 -813.500 -735.908 -659.603 -584.434 -516.723 -466.676 -437.845 -422.977 -412.873 -403.609 -394.795 -386.688 -379.426 -372.861 -366.576 -360.038 -352.871 -345.095 -337.039 -329.016 -321.196 -313.662 -306.455 -299.631 -293.396 -288.014 -283.370 -278.909 -274.201 -269.178 -263.903 -258.401 -252.668 -246.686 -240.453 -234.048 -227.705 -221.766 -216.499 -211.996 -208.259 -205.206 -202.473 -199.487 -195.880 -191.661 -187.063 -182.381 -177.864 -173.791 -170.556 -168.396 -167.127 -166.330 -165.642 -164.882 -164.074 -163.377 -162.902 -162.593 -162.283 -161.734 -160.692 -159.044 -156.856 -154.298 -151.552 -148.742 -145.923 -143.136 -140.467 -137.994 -135.714 -133.605 -131.718 -130.120 -128.763 -127.470 -126.026 -124.326 -122.480 -120.750 -119.334 -118.205 -117.169 -116.032 -114.721 -113.304 -111.887 -110.499 -109.059 -107.412 -105.475 -103.383 -101.304 -99.143 -96.610 -93.266 -88.266 -80.189 -67.612 -51.381 -35.375 -22.999 -14.895 -10.423 -8.663 -8.663
-2484.916 -2461.864 -2441.055 -2416.348 -2380.720 -2289.261 -2181.367 -2062.256 -1938.169 -1822.026 -1720.478 -1634.687 -1563.266 -1500.638 -1438.042 -1369.850 -1295.972 -1218.631 -1139.442 -1059.329 -979.110 -900.017 -823.511 -749.559 -675.675 -600.358 -528.871 -472.735 -438.666 -421.031 -409.932 -400.531 -392.070 -384.497 -377.670 -371.388 -365.358 -359.121 -352.232 -344.628 -336.651 -328.681 -320.923 -313.468 -306.352 -299.623 -293.449 -288.022 -283.198 -278.489 -273.534 -268.282 -262.782 -257.044 -251.041 -244.732 -238.083 -231.147 -224.228 -217.922 -212.723 -208.641 -205.387 -202.671 -200.134 -197.335 -193.981 -190.064 -185.790 -181.448 -177.289 -173.545 -170.472 -168.242 -166.831 -165.982 -165.293 -164.472 -163.526 -162.672 -162.080 -161.692 -161.280 -160.559 -159.319 -157.558 -155.380 -152.886 -150.198 -147.431 -144.662 -141.971 -139.450 -137.144 -135.008 -132.989 -131.149 -129.601 -128.341 -127.188 -125.872 -124.236 -122.387 -120.604 -119.113 -117.931 -116.888 -115.784 -114.530 -113.177 -111.806 -110.410 -108.911 -107.240 -105.413 -103.544 -101.719 -99.799 -97.511 -94.504 -90.022 -82.630 -70.789 -54.944 -38.588 -25.402 -16.519 -11.384 -9.156 -9.156
-2462.367 -2436.733 -2416.476 -2391.648 -2357.367 -2272.003 -2161.492 -2036.230 -1910.303 -1793.496 -1693.055 -1610.486 -1543.938 -1486.382 -1427.843 -1362.481 -1290.637 -1214.955 -1137.399 -1059.290 -981.773 -906.062 -833.209 -762.708 -691.601 -617.732 -545.467 -485.705 -446.245 -423.885 -409.925 -399.118 -390.149 -382.578 -375.913 -369.810 -364.018 -358.100 -351.510 -344.086 -336.185 -328.263 -320.568 -313.198 -306.189 -299.592 -293.549 -288.154 -283.192 -278.239 -273.040 -267.575 -261.877 -255.937 -249.716 -243.154 -236.184 -228.798 -221.314 -214.578 -209.379 -205.664 -202.808 -200.311 -197.870 -195.203 -192.088 -188.479 -184.530 -180.512 -176.682 -173.247 -170.359 -168.118 -166.598 -165.681 -164.964 -164.080 -163.012 -162.002 -161.258 -160.746 -160.221 -159.372 -158.019 -156.204 -154.036 -151.575 -148.912 -146.178 -143.495 -140.961 -138.624 -136.459 -134.402 -132.420 -130.586 -129.031 -127.794 -126.716 -125.502 -123.951 -122.158 -120.400 -118.891 -117.663 -116.582 -115.485 -114.305 -113.078 -111.827 -110.484 -108.954 -107.232 -105.417 -103.625 -101.885 -100.065 -97.940 -95.198 -91.089 -84.171 -72.928 -57.567 -41.139 -27.394 -17.886 -12.202 -9.588 -9.588
-2439.671 -2411.152 -2391.094 -2366.757 -2332.167 -2254.734 -2141.727 -2013.415 -1882.924 -1765.395 -1665.920 -1586.731 -1525.330 -1472.901 -1418.384 -1355.927 -1286.230 -1212.161 -1135.951 -1059.358 -983.937 -911.025 -841.513 -774.591 -706.872 -635.799 -565.006 -503.758 -459.418 -431.256 -412.965 -399.495 -389.039 -380.853 -374.087 -368.095 -362.534 -356.953 -350.695 -343.465 -335.636 -327.755 -320.120 -312.833 -305.935 -299.496 -293.643 -288.355 -283.318 -278.156 -272.726 -267.059 -261.181 -255.069 -248.674 -241.930 -234.754 -227.106 -219.299 -212.303 -207.072 -203.501 -200.767 -198.282 -195.815 -193.200 -190.262 -186.920 -183.270 -179.548 -176.005 -172.829 -170.109 -167.895 -166.288 -165.245 -164.412 -163.433 -162.277 -161.167 -160.305 -159.693 -159.107 -158.223 -156.845 -155.016 -152.856 -150.419 -147.782 -145.099 -142.532 -140.171 -137.989 -135.908 -133.878 -131.899 -130.034 -128.400 -127.072 -125.949 -124.756 -123.295 -121.643 -120.037 -118.636 -117.444 -116.360 -115.288 -114.207 -113.131 -112.025 -110.772 -109.269 -107.543 -105.725 -103.919 -102.140 -100.309 -98.279 -95.754 -91.976 -85.430 -74.428 -59.064 -42.423 -28.369 -18.558 -12.617 -9.837 -9.837
-2416.816 -2385.378 -2365.267 -2341.022 -2306.811 -2237.498 -2122.129 -1990.266 -1856.935 -1737.714 -1639.236 -1563.677 -1507.566 -1460.213 -1409.596 -1349.957 -1282.289 -1209.550 -1134.227 -1058.548 -984.510 -913.696 -847.137 -784.037 -720.633 -653.606 -585.437 -523.703 -475.217 -441.340 -418.211 -401.355 -388.683 -379.317 -372.177 -366.221 -360.874 -355.641 -349.750 -342.743 -334.990 -327.144 -319.560 -312.353 -305.574 -299.319 -293.701 -288.594 -283.560 -278.239 -272.596 -266.733 -260.688 -254.428 -247.898 -241.033 -233.767 -226.092 -218.340 -211.422 -206.169 -202.436 -199.459 -196.726 -194.080 -191.406 -188.542 -185.380 -181.981 -178.535 -175.254 -172.291 -169.699 -167.499 -165.776 -164.516 -163.465 -162.359 -161.160 -160.018 -159.101 -158.456 -157.908 -157.117 -155.816 -154.012 -151.853 -149.438 -146.857 -144.275 -141.845 -139.615 -137.518 -135.470 -133.445 -131.457 -129.546 -127.800 -126.318 -125.057 -123.808 -122.422 -120.974 -119.623 -118.430 -117.353 -116.331 -115.339 -114.374 -113.402 -112.355 -111.133 -109.666 -107.991 -106.214 -104.400 -102.559 -100.685 -98.705 -96.343 -92.917 -86.819 -75.796 -59.782 -42.547 -28.323 -18.523 -12.627 -9.901 -9.901
-2393.801 -2362.237 -2339.236 -2314.892 -2280.668 -2220.075 -2101.426 -1966.952 -1831.434 -1710.977 -1613.678 -1541.965 -1490.986 -1448.322 -1401.359 -1344.383 -1278.397 -1206.450 -1131.428 -1056.091 -982.812 -913.390 -849.143 -789.702 -731.286 -669.360 -604.455 -542.740 -491.025 -452.270 -424.569 -404.198 -388.962 -377.998 -370.201 -364.175 -359.005 -354.091 -348.577 -341.847 -334.214 -326.410 -318.871 -311.743 -305.097 -299.051 -293.708 -288.851 -283.914 -278.495 -272.654 -266.599 -260.396 -254.007 -247.375 -240.444 -233.185 -225.667 -218.249 -211.644 -206.394 -202.330 -198.894 -195.735 -192.755 -189.884 -186.969 -183.880 -180.656 -177.459 -174.431 -171.655 -169.154 -166.939 -165.069 -163.544 -162.233 -160.992 -159.770 -158.617 -157.672 -157.046 -156.626 -156.050 -154.939 -153.202 -151.024 -148.608 -146.103 -143.655 -141.364 -139.222 -137.161 -135.125 -133.103 -131.117 -129.197 -127.404 -125.817 -124.435 -123.124 -121.806 -120.556 -119.442 -118.429 -117.456 -116.517 -115.628 -114.754 -113.798 -112.677 -111.367 -109.880 -108.263 -106.568 -104.800 -102.955 -101.070 -99.123 -96.866 -93.672 -87.782 -76.420 -59.552 -41.777 -27.603 -18.047 -12.390 -9.844 -9.844
-2375.843 -2339.001 -2313.013 -2288.585 -2252.776 -2196.301 -2080.741 -1944.140 -1806.829 -1685.841 -1590.582 -1522.730 -1476.075 -1437.231 -1393.517 -1338.992 -1274.245 -1202.436 -1127.116 -1051.651 -978.661 -910.027 -847.282 -790.658 -736.882 -680.408 -619.480 -558.814 -505.273 -462.869 -431.231 -407.554 -389.704 -376.896 -368.184 -361.959 -356.905 -352.236 -347.063 -340.676 -333.261 -325.542 -318.046 -310.998 -304.502 -298.686 -293.646 -289.108 -284.369 -278.926 -272.908 -266.660 -260.305 -253.804 -247.098 -240.149 -232.971 -225.699 -218.685 -212.418 -207.174 -202.788 -198.903 -195.287 -191.886 -188.691 -185.600 -182.482 -179.357 -176.365 -173.567 -170.957 -168.532 -166.300 -164.302 -162.564 -161.046 -159.690 -158.425 -157.224 -156.226 -155.621 -155.356 -155.044 -154.184 -152.545 -150.327 -147.871 -145.413 -143.087 -140.925 -138.871 -136.855 -134.840 -132.831 -130.873 -129.015 -127.292 -125.731 -124.329 -123.028 -121.807 -120.701 -119.704 -118.739 -117.777 -116.862 -116.014 -115.151 -114.126 -112.856 -111.394 -109.834 -108.241 -106.619 -104.927 -103.146 -101.305 -99.400 -97.215 -94.077 -87.995 -76.081 -58.673 -40.789 -26.843 -17.561 -12.150 -9.786 -9.786
-2364.418 -2321.595 -2286.410 -2259.430 -2222.861 -2166.752 -2058.630 -1922.034 -1783.797 -1663.598 -1571.421 -1507.181 -1463.367 -1426.944 -1385.874 -1333.580 -1269.593 -1197.270 -1121.128 -1045.171 -972.141 -903.899 -842.018 -787.087 -736.566 -684.874 -628.641 -570.724 -517.207 -472.557 -437.739 -411.071 -390.703 -375.951 -366.129 -359.585 -354.603 -350.110 -345.212 -339.203 -332.106 -324.535 -317.094 -310.124 -303.785 -298.213 -293.499 -289.347 -284.910 -279.526 -273.361 -266.923 -260.421 -253.820 -247.064 -240.135 -233.086 -226.085 -219.424 -213.405 -208.143 -203.505 -199.262 -195.254 -191.441 -187.856 -184.490 -181.266 -178.191 -175.347 -172.717 -170.230 -167.866 -165.638 -163.589 -161.766 -160.172 -158.758 -157.432 -156.147 -155.061 -154.429 -154.246 -154.114 -153.452 -151.914 -149.665 -147.146 -144.696 -142.463 -140.430 -138.493 -136.560 -134.592 -132.616 -130.710 -128.954 -127.363 -125.913 -124.588 -123.381 -122.286 -121.280 -120.297 -119.278 -118.245 -117.267 -116.352 -115.402 -114.267 -112.876 -111.304 -109.681 -108.077 -106.482 -104.846 -103.139 -101.372 -99.524 -97.401 -94.301 -88.145 -76.097 -58.647 -40.800 -26.879 -17.609 -12.224 -9.889 -9.889
-2352.921 -2307.621 -2260.710 -2229.185 -2192.827 -2137.214 -2036.808 -1899.635 -1762.814 -1645.165 -1556.784 -1495.513 -1452.836 -1417.441 -1378.331 -1327.896 -1264.176 -1190.757 -1113.371 -1036.669 -963.425 -895.443 -834.180 -780.156 -731.394 -683.217 -631.873 -578.213 -526.520 -481.043 -443.859 -414.539 -391.775 -375.060 -364.013 -357.074 -352.167 -347.844 -343.177 -337.520 -330.777 -323.406 -316.031 -309.125 -302.939 -297.621 -293.264 -289.554 -285.509 -280.272 -274.011 -267.398 -260.753 -254.062 -247.275 -240.395 -233.503 -226.756 -220.362 -214.488 -209.172 -204.329 -199.809 -195.489 -191.325 -187.360 -183.665 -180.273 -177.204 -174.449 -171.907 -169.480 -167.154 -164.947 -162.917 -161.131 -159.593 -158.215 -156.879 -155.544 -154.379 -153.651 -153.390 -153.239 -152.627 -151.163 -148.938 -146.399 -143.963 -141.818 -139.917 -138.108 -136.277 -134.383 -132.464 -130.620 -128.946 -127.456 -126.109 -124.883 -123.786 -122.806 -121.874 -120.894 -119.822 -118.700 -117.595 -116.524 -115.432 -114.218 -112.807 -111.230 -109.596 -107.980 -106.387 -104.779 -103.121 -101.405 -99.594 -97.497 -94.515 -88.789 -77.430 -60.412 -42.434 -28.096 -18.448 -12.770 -10.243 -10.243
-2336.848 -2289.444 -2240.637 -2203.983 -2162.667 -2107.660 -2015.343 -1878.276 -1743.260 -1629.870 -1545.377 -1486.206 -1443.879 -1408.582 -1370.650 -1321.519 -1257.567 -1182.602 -1103.708 -1026.147 -952.677 -885.029 -824.424 -771.045 -723.220 -677.476 -630.545 -581.727 -533.122 -488.123 -449.454 -417.861 -392.811 -374.129 -361.799 -354.456 -349.683 -345.582 -341.130 -335.765 -329.345 -322.185 -314.875 -308.003 -301.951 -296.908 -292.945 -289.712 -286.107 -281.104 -274.833 -268.088 -261.313 -254.542 -247.740 -240.928 -234.191 -227.653 -221.432 -215.609 -210.207 -205.180 -200.432 -195.863 -191.424 -187.137 -183.109 -179.482 -176.343 -173.611 -171.099 -168.692 -166.384 -164.197 -162.197 -160.478 -159.049 -157.793 -156.552 -155.272 -154.089 -153.232 -152.757 -152.396 -151.690 -150.270 -148.148 -145.692 -143.334 -141.287 -139.493 -137.782 -136.038 -134.226 -132.380 -130.591 -128.954 -127.506 -126.212 -125.031 -123.968 -123.027 -122.152 -121.231 -120.168 -118.949 -117.640 -116.340 -115.115 -113.931 -112.659 -111.212 -109.631 -108.024 -106.449 -104.884 -103.264 -101.549 -99.710 -97.577 -94.717 -89.692 -79.635 -63.591 -45.518 -30.452 -20.091 -13.825 -10.894 -10.894
-2318.605 -2271.155 -2222.251 -2181.223 -2138.065 -2078.051 -1993.923 -1857.777 -1725.315 -1616.198 -1535.254 -1477.948 -1435.617 -1399.801 -1362.155 -1313.472 -1248.821 -1172.218 -1091.880 -1013.547 -939.978 -872.828 -813.005 -760.295 -713.227 -669.368 -626.164 -581.991 -537.067 -493.591 -454.370 -421.010 -393.809 -373.136 -359.497 -351.800 -347.255 -343.433 -339.178 -334.037 -327.882 -320.917 -313.653 -306.768 -300.823 -296.083 -292.552 -289.770 -286.579 -281.886 -275.742 -268.964 -262.101 -255.267 -248.461 -241.716 -235.107 -228.706 -222.565 -216.722 -211.206 -206.004 -201.053 -196.278 -191.626 -187.094 -182.770 -178.859 -175.537 -172.732 -170.207 -167.820 -165.547 -163.381 -161.378 -159.672 -158.321 -157.212 -156.144 -155.011 -153.891 -152.956 -152.259 -151.633 -150.764 -149.367 -147.397 -145.123 -142.917 -140.967 -139.223 -137.548 -135.855 -134.117 -132.350 -130.611 -128.995 -127.557 -126.248 -124.972 -123.735 -122.662 -121.827 -121.092 -120.167 -118.855 -117.249 -115.645 -114.315 -113.301 -112.365 -111.209 -109.755 -108.169 -106.619 -105.117 -103.543 -101.799 -99.870 -97.660 -94.875 -90.500 -81.997 -67.560 -49.840 -33.993 -22.637 -15.497 -11.967 -11.967
-2301.176 -2252.752 -2203.765 -2158.348 -2115.093 -2054.200 -1965.858 -1837.936 -1708.530 -1603.456 -1526.217 -1469.910 -1427.173 -1390.229 -1351.508 -1301.985 -1236.376 -1158.678 -1077.466 -998.703 -925.273 -858.811 -799.890 -747.962 -701.762 -659.666 -619.700 -579.698 -538.520 -497.240 -458.363 -423.924 -394.889 -372.282 -357.332 -349.316 -345.031 -341.474 -337.373 -332.393 -326.449 -319.650 -312.405 -305.457 -299.590 -295.189 -292.093 -289.651 -286.757 -282.418 -276.577 -269.931 -263.070 -256.209 -249.406 -242.710 -236.177 -229.840 -223.706 -217.794 -212.144 -206.770 -201.635 -196.680 -191.858 -187.148 -182.594 -178.387 -174.769 -171.759 -169.159 -166.811 -164.630 -162.519 -160.497 -158.752 -157.432 -156.441 -155.541 -154.578 -153.583 -152.672 -151.869 -151.047 -150.009 -148.582 -146.739 -144.668 -142.636 -140.771 -139.034 -137.347 -135.677 -134.009 -132.330 -130.665 -129.094 -127.657 -126.225 -124.598 -122.830 -121.324 -120.452 -120.091 -119.600 -118.407 -116.568 -114.651 -113.221 -112.436 -111.937 -111.172 -109.896 -108.321 -106.757 -105.280 -103.738 -101.968 -99.953 -97.682 -94.948 -91.035 -83.995 -71.610 -54.919 -38.515 -25.938 -17.672 -13.432 -13.432
-2284.921 -2235.412 -2185.178 -2135.356 -2092.042 -2031.159 -1940.403 -1818.502 -1692.405 -1591.092 -1516.879 -1461.621 -1417.982 -1378.897 -1337.477 -1285.726 -1219.114 -1141.242 -1060.016 -981.334 -908.369 -842.803 -784.925 -733.956 -688.869 -648.658 -611.687 -575.397 -537.742 -498.937 -461.093 -426.382 -396.177 -372.028 -355.875 -347.433 -343.221 -339.778 -335.744 -330.872 -325.092 -318.435 -311.203 -304.181 -298.403 -294.356 -291.628 -289.349 -286.582 -282.576 -277.181 -270.852 -264.120 -257.288 -250.496 -243.824 -237.322 -230.993 -224.818 -218.809 -213.018 -207.478 -202.173 -197.060 -192.097 -187.254 -182.538 -178.075 -174.103 -170.756 -167.979 -165.662 -163.633 -161.650 -159.656 -157.895 -156.592 -155.668 -154.860 -154.009 -153.135 -152.324 -151.554 -150.652 -149.457 -147.921 -146.108 -144.172 -142.275 -140.474 -138.737 -137.040 -135.397 -133.811 -132.249 -130.703 -129.223 -127.782 -126.113 -123.895 -121.267 -118.970 -117.842 -117.957 -118.304 -117.716 -116.018 -113.974 -112.459 -111.793 -111.567 -111.072 -109.931 -108.344 -106.711 -105.183 -103.621 -101.847 -99.829 -97.573 -94.869 -91.159 -85.117 -74.626 -59.350 -42.756 -29.002 -19.621 -14.756 -14.756
-2268.567 -2219.012 -2167.929 -2113.857 -2067.593 -2002.191 -1912.246 -1797.171 -1676.422 -1578.967 -1507.075 -1452.538 -1407.585 -1365.505 -1320.169 -1265.307 -1197.575 -1120.008 -1039.333 -961.173 -888.998 -824.565 -767.933 -718.205 -674.599 -636.512 -602.434 -569.484 -535.031 -498.690 -462.257 -428.003 -397.550 -372.683 -355.680 -346.598 -342.039 -338.428 -334.336 -329.508 -323.848 -317.317 -310.146 -303.169 -297.576 -293.844 -291.313 -289.002 -286.208 -282.448 -277.523 -271.628 -265.147 -258.414 -251.648 -244.986 -238.485 -232.130 -225.885 -219.765 -213.833 -208.137 -202.678 -197.424 -192.342 -187.400 -182.583 -177.948 -173.662 -169.918 -166.853 -164.495 -162.615 -160.821 -158.964 -157.283 -156.012 -155.079 -154.242 -153.380 -152.552 -151.841 -151.174 -150.295 -149.000 -147.324 -145.447 -143.542 -141.702 -139.935 -138.209 -136.532 -134.944 -133.453 -132.024 -130.628 -129.273 -127.852 -125.959 -123.198 -119.757 -116.593 -115.000 -115.438 -116.705 -117.069 -115.969 -114.136 -112.608 -111.838 -111.496 -110.919 -109.708 -108.026 -106.297 -104.698 -103.107 -101.375 -99.466 -97.320 -94.635 -90.910 -85.225 -75.699 -61.310 -44.726 -30.348 -20.382 -15.223 -15.223
-2252.110 -2202.513 -2151.359 -2096.370 -2036.384 -1972.061 -1884.391 -1776.473 -1659.869 -1566.749 -1496.927 -1442.580 -1395.839 -1350.413 -1300.918 -1242.661 -1173.454 -1095.877 -1015.661 -938.134 -866.950 -803.877 -748.785 -700.718 -659.064 -623.383 -592.136 -562.226 -530.660 -496.648 -461.793 -428.509 -398.639 -373.996 -356.709 -346.895 -341.578 -337.498 -333.203 -328.338 -322.745 -316.334 -309.332 -302.624 -297.364 -293.851 -291.296 -288.798 -285.875 -282.242 -277.696 -272.244 -266.091 -259.525 -252.816 -246.163 -239.645 -233.238 -226.901 -220.662 -214.594 -208.753 -203.152 -197.774 -192.589 -187.571 -182.700 -177.985 -173.505 -169.438 -166.051 -163.537 -161.708 -160.091 -158.451 -156.939 -155.715 -154.698 -153.710 -152.706 -151.816 -151.149 -150.594 -149.821 -148.548 -146.800 -144.825 -142.856 -140.993 -139.218 -137.498 -135.856 -134.338 -132.942 -131.628 -130.365 -129.139 -127.797 -125.884 -122.994 -119.311 -115.788 -113.872 -114.268 -115.886 -116.905 -116.489 -115.090 -113.630 -112.583 -111.759 -110.670 -109.022 -107.054 -105.254 -103.734 -102.257 -100.661 -98.930 -96.934 -94.270 -90.452 -84.637 -74.933 -60.378 -43.798 -29.585 -19.806 -14.764 -14.764
-2235.545 -2185.796 -2134.186 -2079.011 -2017.283 -1942.993 -1857.227 -1754.042 -1644.182 -1554.229 -1486.156 -1431.787 -1383.062 -1334.313 -1280.915 -1219.390 -1148.279 -1069.964 -989.618 -912.433 -842.196 -780.659 -727.489 -681.622 -642.443 -609.444 -580.973 -553.835 -524.872 -493.055 -459.889 -427.916 -399.182 -375.461 -358.442 -348.024 -341.771 -337.020 -332.388 -327.395 -321.812 -315.523 -308.805 -302.553 -297.702 -294.294 -291.565 -288.813 -285.720 -282.112 -277.819 -272.744 -266.939 -260.595 -253.980 -247.342 -240.794 -234.312 -227.865 -221.498 -215.296 -209.321 -203.593 -198.103 -192.829 -187.750 -182.844 -178.095 -173.533 -169.298 -165.677 -162.947 -161.029 -159.490 -158.037 -156.699 -155.517 -154.386 -153.191 -151.978 -150.960 -150.290 -149.838 -149.230 -148.102 -146.386 -144.329 -142.246 -140.297 -138.481 -136.756 -135.143 -133.688 -132.373 -131.145 -129.979 -128.863 -127.656 -125.973 -123.466 -120.272 -117.172 -115.342 -115.374 -116.532 -117.459 -117.346 -116.307 -114.930 -113.556 -112.068 -110.153 -107.728 -105.330 -103.632 -102.525 -101.396 -100.009 -98.428 -96.509 -93.808 -89.859 -83.727 -73.383 -58.231 -41.688 -28.027 -18.794 -14.051 -14.051
-2219.190 -2168.463 -2116.824 -2061.618 -1999.331 -1925.394 -1833.256 -1732.629 -1629.414 -1541.875 -1474.807 -1420.208 -1369.600 -1317.703 -1260.814 -1196.227 -1122.935 -1043.227 -962.043 -884.623 -815.030 -755.107 -704.291 -661.199 -624.978 -594.901 -569.153 -544.525 -517.889 -488.163 -456.802 -426.416 -399.192 -376.822 -360.452 -349.649 -342.482 -336.969 -331.903 -326.701 -321.075 -314.918 -308.560 -302.815 -298.324 -294.936 -292.000 -289.011 -285.752 -282.114 -277.968 -273.183 -267.706 -261.616 -255.132 -248.522 -241.932 -235.352 -228.770 -222.263 -215.928 -209.828 -203.986 -198.396 -193.045 -187.911 -182.969 -178.192 -173.597 -169.312 -165.575 -162.656 -160.568 -158.979 -157.593 -156.346 -155.178 -153.952 -152.599 -151.228 -150.104 -149.408 -149.021 -148.570 -147.629 -146.007 -143.916 -141.734 -139.698 -137.847 -136.131 -134.547 -133.137 -131.890 -130.747 -129.676 -128.658 -127.593 -126.241 -124.371 -122.050 -119.778 -118.269 -117.864 -118.187 -118.486 -118.192 -117.233 -115.862 -114.200 -112.122 -109.442 -106.313 -103.629 -102.262 -101.779 -101.077 -99.835 -98.266 -96.252 -93.355 -89.163 -82.734 -72.042 -56.697 -40.331 -27.083 -18.218 -13.674 -13.674
-2202.131 -2149.072 -2099.372 -2044.197 -1981.727 -1908.325 -1817.765 -1715.011 -1615.351 -1529.969 -1463.397 -1407.945 -1355.540 -1300.928 -1240.888 -1173.411 -1097.816 -1016.341 -933.766 -855.481 -786.062 -727.722 -679.651 -639.858 -606.989 -580.007 -556.914 -534.537 -509.954 -482.211 -452.768 -424.244 -398.870 -378.133 -362.611 -351.581 -343.586 -337.298 -331.736 -326.266 -320.554 -314.540 -308.565 -303.276 -299.044 -295.626 -292.508 -289.330 -285.936 -282.249 -278.181 -273.607 -268.417 -262.590 -256.266 -249.700 -243.054 -236.345 -229.599 -222.932 -216.462 -210.247 -204.305 -198.629 -193.209 -188.024 -183.042 -178.232 -173.623 -169.332 -165.547 -162.485 -160.206 -158.479 -157.038 -155.775 -154.579 -153.306 -151.907 -150.508 -149.352 -148.610 -148.200 -147.803 -146.991 -145.493 -143.458 -141.284 -139.254 -137.428 -135.747 -134.183 -132.794 -131.612 -130.583 -129.637 -128.721 -127.766 -126.669 -125.335 -123.784 -122.237 -121.020 -120.296 -119.910 -119.509 -118.785 -117.653 -116.183 -114.357 -112.030 -109.093 -105.822 -103.217 -102.140 -101.992 -101.474 -100.231 -98.524 -96.232 -92.947 -88.321 -81.538 -70.841 -55.875 -39.931 -26.927 -18.171 -13.669 -13.669
-2184.952 -2128.921 -2079.469 -2026.515 -1964.617 -1891.618 -1802.898 -1701.234 -1601.529 -1518.493 -1451.719 -1395.320 -1341.228 -1284.103 -1221.213 -1150.957 -1073.038 -989.668 -905.395 -825.714 -755.953 -699.085 -654.109 -618.096 -588.896 -565.079 -544.505 -524.134 -501.376 -475.525 -448.112 -421.738 -398.522 -379.574 -364.929 -353.733 -345.001 -337.962 -331.873 -326.087 -320.262 -314.391 -308.780 -303.863 -299.796 -296.324 -293.058 -289.737 -286.240 -282.508 -278.478 -274.052 -269.100 -263.526 -257.380 -250.861 -244.131 -237.243 -230.294 -223.456 -216.857 -210.543 -204.517 -198.770 -193.290 -188.057 -183.036 -178.202 -173.594 -169.318 -165.511 -162.325 -159.845 -157.938 -156.380 -155.031 -153.779 -152.498 -151.147 -149.819 -148.689 -147.885 -147.365 -146.892 -146.113 -144.764 -142.923 -140.933 -139.058 -137.342 -135.708 -134.140 -132.744 -131.611 -130.690 -129.866 -129.044 -128.167 -127.205 -126.158 -125.038 -123.907 -122.867 -121.962 -121.119 -120.192 -119.065 -117.705 -116.132 -114.317 -112.142 -109.520 -106.691 -104.416 -103.304 -102.878 -102.138 -100.776 -98.888 -96.258 -92.485 -87.120 -79.467 -68.509 -54.251 -39.262 -26.799 -18.220 -13.755 -13.755
-2167.651 -2108.625 -2059.242 -2006.503 -1946.912 -1875.083 -1784.169 -1683.619 -1587.259 -1506.104 -1439.960 -1382.543 -1326.872 -1267.412 -1201.768 -1128.822 -1048.663 -963.472 -877.385 -795.853 -725.221 -669.718 -628.242 -596.517 -571.235 -550.493 -532.154 -513.527 -492.466 -468.528 -443.325 -419.384 -398.514 -381.309 -367.410 -356.048 -346.674 -338.938 -332.309 -326.174 -320.212 -314.468 -309.172 -304.536 -300.562 -297.027 -293.648 -290.226 -286.656 -282.885 -278.874 -274.548 -269.785 -264.439 -258.462 -251.956 -245.065 -237.928 -230.754 -223.762 -217.064 -210.678 -204.590 -198.787 -193.259 -187.984 -182.933 -178.092 -173.507 -169.270 -165.462 -162.164 -159.474 -157.368 -155.670 -154.213 -152.892 -151.611 -150.325 -149.088 -148.008 -147.165 -146.527 -145.928 -145.129 -143.942 -142.398 -140.731 -139.128 -137.586 -136.026 -134.465 -133.051 -131.910 -131.015 -130.237 -129.461 -128.628 -127.731 -126.796 -125.840 -124.860 -123.854 -122.809 -121.685 -120.451 -119.096 -117.618 -116.028 -114.332 -112.489 -110.427 -108.236 -106.284 -104.868 -103.767 -102.528 -100.992 -99.006 -96.172 -91.993 -85.689 -76.558 -64.692 -51.047 -37.488 -26.089 -17.980 -13.675 -13.675
-2150.224 -2090.655 -2038.886 -1986.401 -1927.765 -1855.988 -1762.245 -1665.971 -1573.055 -1493.464 -1427.631 -1369.763 -1312.584 -1250.934 -1182.652 -1107.183 -1025.114 -938.465 -850.634 -766.825 -694.720 -640.445 -602.888 -575.903 -554.600 -536.595 -520.007 -502.803 -483.413 -461.614 -438.967 -417.713 -399.157 -383.411 -370.007 -358.453 -348.553 -340.218 -333.076 -326.576 -320.450 -314.790 -309.728 -305.276 -301.339 -297.745 -294.289 -290.804 -287.187 -283.389 -279.384 -275.126 -270.507 -265.352 -259.492 -252.893 -245.706 -238.252 -230.877 -223.789 -217.039 -210.615 -204.493 -198.656 -193.093 -187.788 -182.721 -177.897 -173.363 -169.191 -165.410 -162.033 -159.147 -156.827 -154.970 -153.394 -151.986 -150.674 -149.412 -148.233 -147.219 -146.411 -145.747 -145.079 -144.262 -143.212 -141.954 -140.614 -139.296 -137.967 -136.542 -135.047 -133.631 -132.429 -131.457 -130.623 -129.817 -128.977 -128.097 -127.199 -126.276 -125.289 -124.202 -123.013 -121.738 -120.389 -118.974 -117.472 -115.872 -114.230 -112.625 -111.044 -109.401 -107.694 -105.984 -104.261 -102.535 -100.848 -98.882 -96.039 -91.703 -84.876 -74.789 -62.134 -48.590 -35.830 -25.201 -17.538 -13.438 -13.438
-2113.671 -2069.656 -2018.428 -1966.950 -1909.300 -1840.965 -1746.842 -1648.054 -1558.700 -1480.848 -1415.368 -1356.837 -1298.437 -1234.790 -1164.145 -1086.704 -1003.473 -916.148 -827.085 -740.944 -666.860 -613.374 -579.625 -557.277 -539.540 -523.633 -508.201 -492.076 -474.397 -455.146 -435.522 -417.076 -400.531 -385.802 -372.623 -360.859 -350.567 -341.784 -334.228 -327.398 -321.075 -315.400 -310.440 -306.067 -302.130 -298.492 -294.992 -291.475 -287.837 -284.027 -280.026 -275.811 -271.299 -266.285 -260.452 -253.605 -245.974 -238.155 -230.626 -223.506 -216.753 -210.326 -204.196 -198.347 -192.768 -187.452 -182.397 -177.622 -173.169 -169.085 -165.362 -161.955 -158.922 -156.396 -154.363 -152.647 -151.126 -149.747 -148.462 -147.299 -146.357 -145.656 -145.070 -144.419 -143.603 -142.631 -141.553 -140.442 -139.348 -138.232 -136.995 -135.625 -134.240 -132.974 -131.882 -130.931 -130.041 -129.150 -128.244 -127.315 -126.332 -125.254 -124.067 -122.809 -121.520 -120.194 -118.768 -117.157 -115.355 -113.546 -112.001 -110.773 -109.622 -108.254 -106.547 -104.589 -102.632 -100.844 -98.874 -96.054 -91.769 -85.159 -75.465 -62.914 -48.904 -35.571 -24.737 -17.177 -13.214 -13.214
-2076.621 -2040.196 -2001.332 -1947.759 -1890.694 -1823.507 -1734.736 -1636.025 -1544.257 -1468.110 -1403.182 -1344.112 -1284.459 -1219.200 -1146.822 -1068.306 -984.994 -898.117 -808.999 -721.554 -645.707 -592.105 -560.709 -541.634 -526.350 -511.736 -497.010 -481.793 -465.910 -449.520 -433.141 -417.313 -402.309 -388.214 -375.114 -363.170 -352.610 -343.552 -335.737 -328.663 -322.126 -316.309 -311.291 -306.898 -302.940 -299.277 -295.760 -292.238 -288.602 -284.798 -280.808 -276.622 -272.185 -267.253 -261.340 -254.105 -245.928 -237.715 -230.044 -222.918 -216.191 -209.789 -203.677 -197.838 -192.268 -186.972 -181.966 -177.275 -172.933 -168.959 -165.316 -161.925 -158.812 -156.130 -153.925 -152.054 -150.412 -148.965 -147.656 -146.499 -145.607 -144.998 -144.494 -143.878 -143.070 -142.127 -141.132 -140.148 -139.208 -138.269 -137.217 -135.989 -134.661 -133.363 -132.175 -131.114 -130.141 -129.196 -128.237 -127.226 -126.126 -124.932 -123.692 -122.471 -121.280 -120.035 -118.544 -116.612 -114.297 -112.081 -110.520 -109.685 -109.133 -108.328 -106.995 -105.228 -103.319 -101.424 -99.283 -96.375 -92.153 -85.944 -76.977 -64.674 -49.901 -35.556 -24.288 -16.798 -13.004 -13.004
-2053.906 -2021.519 -1987.672 -1931.991 -1871.901 -1805.781 -1722.264 -1624.599 -1533.672 -1455.923 -1390.781 -1331.466 -1271.015 -1204.588 -1131.252 -1052.670 -970.279 -884.896 -797.225 -710.469 -634.048 -579.270 -547.540 -529.235 -514.907 -500.952 -486.838 -472.633 -458.588 -444.901 -431.387 -417.697 -403.863 -390.272 -377.304 -365.282 -354.569 -345.376 -337.444 -330.218 -323.476 -317.437 -312.247 -307.764 -303.774 -300.106 -296.593 -293.085 -289.473 -285.695 -281.730 -277.574 -273.184 -268.269 -262.165 -254.432 -245.660 -237.041 -229.206 -222.057 -215.360 -209.002 -202.932 -197.128 -191.598 -186.360 -181.442 -176.870 -172.662 -168.810 -165.253 -161.900 -158.762 -155.976 -153.617 -151.608 -149.881 -148.409 -147.121 -145.994 -145.116 -144.504 -143.983 -143.350 -142.545 -141.630 -140.688 -139.780 -138.935 -138.110 -137.187 -136.073 -134.809 -133.518 -132.296 -131.181 -130.158 -129.177 -128.179 -127.106 -125.924 -124.662 -123.415 -122.263 -121.185 -120.021 -118.449 -116.154 -113.267 -110.605 -109.051 -108.650 -108.703 -108.484 -107.626 -106.175 -104.378 -102.353 -99.980 -96.963 -92.768 -86.638 -77.578 -64.691 -49.083 -34.320 -23.203 -16.124 -12.672 -12.672
-2035.024 -2002.669 -1968.916 -1918.540 -1857.568 -1787.960 -1709.438 -1612.720 -1522.756 -1445.519 -1379.248 -1319.195 -1258.370 -1191.372 -1117.897 -1040.038 -959.210 -875.929 -790.762 -706.413 -630.716 -574.016 -539.402 -519.450 -504.874 -491.312 -477.968 -464.964 -452.605 -440.983 -429.532 -417.468 -404.679 -391.686 -379.018 -367.084 -356.353 -347.141 -339.181 -331.863 -324.944 -318.673 -313.273 -308.668 -304.642 -300.981 -297.490 -294.013 -290.441 -286.709 -282.787 -278.669 -274.310 -269.343 -262.925 -254.591 -245.200 -236.180 -228.161 -220.965 -214.299 -208.001 -201.992 -196.246 -190.782 -185.638 -180.847 -176.423 -172.364 -168.631 -165.145 -161.824 -158.671 -155.796 -153.296 -151.181 -149.426 -147.982 -146.754 -145.684 -144.801 -144.108 -143.486 -142.794 -141.994 -141.126 -140.242 -139.389 -138.584 -137.785 -136.899 -135.850 -134.660 -133.434 -132.256 -131.157 -130.126 -129.127 -128.117 -127.047 -125.882 -124.642 -123.418 -122.295 -121.261 -120.158 -118.631 -116.315 -113.343 -110.614 -109.102 -108.850 -109.085 -109.062 -108.405 -107.084 -105.290 -103.148 -100.639 -97.584 -93.425 -87.125 -77.238 -63.056 -46.680 -32.084 -21.583 -15.172 -12.209 -12.209
-2013.169 -1983.634 -1949.972 -1904.953 -1844.144 -1774.861 -1694.358 -1600.925 -1511.809 -1434.931 -1368.882 -1308.116 -1246.667 -1179.828 -1106.961 -1030.333 -951.329 -870.359 -788.039 -706.687 -632.240 -573.307 -534.482 -511.486 -496.015 -482.813 -470.386 -458.610 -447.605 -437.325 -427.180 -416.352 -404.587 -392.317 -380.111 -368.450 -357.886 -348.791 -340.874 -333.499 -326.437 -319.957 -314.346 -309.608 -305.545 -301.905 -298.454 -295.022 -291.505 -287.834 -283.974 -279.907 -275.558 -270.447 -263.578 -254.556 -244.542 -235.131 -226.911 -219.656 -213.033 -206.823 -200.902 -195.233 -189.856 -184.837 -180.210 -175.962 -172.053 -168.415 -164.969 -161.653 -158.468 -155.493 -152.857 -150.659 -148.914 -147.531 -146.374 -145.357 -144.464 -143.686 -142.964 -142.222 -141.434 -140.613 -139.785 -138.969 -138.157 -137.307 -136.373 -135.336 -134.233 -133.134 -132.078 -131.059 -130.056 -129.054 -128.047 -127.025 -125.956 -124.819 -123.649 -122.516 -121.449 -120.371 -119.033 -117.145 -114.776 -112.548 -111.138 -110.587 -110.382 -110.013 -109.168 -107.750 -105.880 -103.672 -101.123 -98.049 -93.850 -87.204 -76.236 -60.674 -43.777 -29.659 -19.912 -14.205 -11.741 -11.741
-1988.976 -1960.471 -1930.626 -1891.222 -1830.554 -1756.284 -1671.412 -1584.648 -1500.561 -1424.129 -1358.386 -1297.626 -1236.298 -1169.936 -1098.261 -1023.150 -946.037 -867.387 -787.855 -709.268 -635.876 -574.674 -531.385 -504.824 -488.132 -475.286 -463.802 -453.118 -443.130 -433.706 -424.383 -414.473 -403.628 -392.109 -380.459 -369.241 -359.070 -350.273 -342.485 -335.097 -327.932 -321.270 -315.451 -310.575 -306.482 -302.880 -299.488 -296.119 -292.669 -289.072 -285.284 -281.262 -276.862 -271.472 -264.038 -254.328 -243.731 -233.908 -225.439 -218.104 -211.545 -205.474 -199.694 -194.136 -188.874 -184.015 -179.585 -175.521 -171.736 -168.153 -164.711 -161.376 -158.145 -155.079 -152.321 -150.046 -148.318 -147.003 -145.907 -144.921 -144.018 -143.188 -142.411 -141.649 -140.876 -140.091 -139.302 -138.511 -137.683 -136.770 -135.761 -134.702 -133.674 -132.723 -131.829 -130.929 -129.983 -128.990 -127.992 -127.024 -126.072 -125.073 -123.991 -122.853 -121.720 -120.612 -119.448 -118.095 -116.551 -115.036 -113.777 -112.778 -111.892 -110.938 -109.716 -108.112 -106.177 -103.957 -101.414 -98.299 -93.869 -86.595 -74.514 -57.934 -40.923 -27.465 -18.493 -13.430 -11.383 -11.383
-1964.526 -1936.075 -1906.372 -1871.133 -1805.225 -1730.182 -1648.133 -1563.743 -1484.923 -1413.047 -1347.608 -1287.181 -1226.424 -1161.330 -1091.250 -1017.842 -942.591 -866.213 -789.270 -712.977 -640.266 -576.906 -529.345 -499.052 -480.917 -468.388 -457.813 -448.072 -438.892 -430.100 -421.339 -412.068 -401.935 -391.077 -380.004 -369.374 -359.814 -351.498 -343.952 -336.624 -329.415 -322.605 -316.581 -311.558 -307.441 -303.903 -300.600 -297.317 -293.949 -290.435 -286.711 -282.684 -278.114 -272.307 -264.296 -254.033 -242.929 -232.608 -223.770 -216.322 -209.879 -204.038 -198.491 -193.123 -188.023 -183.329 -179.060 -175.117 -171.393 -167.820 -164.360 -160.997 -157.735 -154.624 -151.800 -149.467 -147.727 -146.441 -145.374 -144.399 -143.488 -142.639 -141.846 -141.084 -140.327 -139.566 -138.808 -138.047 -137.233 -136.310 -135.272 -134.198 -133.205 -132.356 -131.602 -130.835 -129.978 -129.029 -128.053 -127.128 -126.264 -125.380 -124.385 -123.260 -122.069 -120.892 -119.782 -118.741 -117.723 -116.662 -115.491 -114.204 -112.868 -111.499 -109.992 -108.250 -106.267 -104.036 -101.489 -98.258 -93.368 -85.166 -71.988 -54.833 -38.120 -25.452 -17.278 -12.839 -11.145 -11.145
-1939.814 -1911.046 -1874.478 -1835.454 -1777.320 -1703.753 -1624.521 -1542.762 -1467.622 -1398.693 -1336.158 -1276.565 -1216.656 -1153.173 -1085.047 -1013.534 -940.193 -865.966 -791.327 -716.933 -644.734 -579.487 -527.945 -493.851 -474.083 -461.805 -452.106 -443.230 -434.774 -426.539 -418.217 -409.379 -399.738 -389.413 -378.923 -368.984 -360.160 -352.428 -345.218 -338.046 -330.869 -323.956 -317.730 -312.545 -308.410 -304.970 -301.799 -298.635 -295.374 -291.948 -288.257 -284.136 -279.270 -272.983 -264.505 -253.917 -242.418 -231.481 -222.096 -214.514 -208.321 -202.859 -197.660 -192.565 -187.644 -183.028 -178.756 -174.774 -171.006 -167.397 -163.910 -160.530 -157.272 -154.189 -151.390 -149.045 -147.255 -145.917 -144.821 -143.833 -142.918 -142.073 -141.290 -140.544 -139.807 -139.071 -138.344 -137.620 -136.853 -135.982 -134.986 -133.930 -132.939 -132.111 -131.433 -130.800 -130.090 -129.255 -128.344 -127.452 -126.614 -125.767 -124.801 -123.672 -122.437 -121.203 -120.078 -119.123 -118.267 -117.311 -116.111 -114.704 -113.232 -111.752 -110.175 -108.385 -106.335 -104.032 -101.386 -97.867 -92.285 -82.939 -68.664 -51.245 -35.154 -23.402 -16.082 -12.312 -10.971 -10.971
-1921.166 -1874.047 -1837.761 -1799.366 -1749.323 -1677.364 -1600.598 -1522.397 -1449.979 -1384.010 -1323.499 -1265.681 -1206.779 -1144.821 -1078.794 -1009.373 -937.995 -865.749 -793.115 -720.406 -648.847 -582.178 -527.048 -489.151 -467.560 -455.434 -446.582 -438.538 -430.773 -423.063 -415.121 -406.603 -397.325 -387.469 -377.594 -368.395 -360.299 -353.128 -346.285 -339.341 -332.272 -325.311 -318.898 -313.534 -309.381 -306.078 -303.090 -300.093 -296.971 -293.643 -289.946 -285.649 -280.409 -273.654 -264.852 -254.166 -242.472 -230.961 -220.951 -213.244 -207.424 -202.445 -197.629 -192.796 -187.980 -183.280 -178.793 -174.570 -170.617 -166.905 -163.379 -160.002 -156.786 -153.785 -151.081 -148.774 -146.926 -145.479 -144.293 -143.260 -142.336 -141.512 -140.763 -140.051 -139.349 -138.650 -137.957 -137.263 -136.534 -135.726 -134.807 -133.804 -132.820 -131.974 -131.325 -130.810 -130.282 -129.625 -128.834 -127.981 -127.120 -126.221 -125.198 -124.018 -122.748 -121.493 -120.360 -119.402 -118.523 -117.510 -116.245 -114.813 -113.365 -111.941 -110.423 -108.629 -106.480 -104.029 -101.149 -97.146 -90.724 -80.190 -64.910 -47.461 -32.191 -21.399 -14.921 -11.817 -10.822 -10.822
-1919.788 -1856.548 -1800.625 -1762.857 -1720.992 -1650.717 -1576.663 -1501.768 -1432.151 -1370.217 -1311.319 -1254.192 -1196.380 -1136.061 -1072.050 -1004.725 -935.287 -864.866 -794.026 -722.941 -652.305 -584.856 -526.768 -485.262 -461.692 -449.552 -441.446 -434.134 -426.966 -419.715 -412.103 -403.860 -394.914 -385.544 -376.326 -367.856 -360.403 -353.707 -347.203 -340.514 -333.606 -326.661 -320.097 -314.544 -310.363 -307.231 -304.486 -301.710 -298.768 -295.546 -291.812 -287.284 -281.639 -274.443 -265.410 -254.796 -243.203 -231.470 -221.063 -213.257 -207.713 -203.082 -198.505 -193.790 -188.943 -184.041 -179.225 -174.629 -170.348 -166.421 -162.809 -159.438 -156.285 -153.385 -150.790 -148.546 -146.667 -145.120 -143.829 -142.726 -141.784 -140.985 -140.282 -139.618 -138.964 -138.316 -137.660 -136.969 -136.231 -135.436 -134.574 -133.657 -132.755 -131.963 -131.353 -130.907 -130.504 -130.013 -129.366 -128.577 -127.687 -126.690 -125.550 -124.288 -122.990 -121.748 -120.630 -119.651 -118.702 -117.614 -116.324 -114.926 -113.535 -112.166 -110.686 -108.868 -106.599 -103.943 -100.708 -96.107 -88.859 -77.346 -61.387 -44.145 -29.727 -19.787 -13.998 -11.422 -10.697 -10.697
-1918.429 -1851.200 -1791.969 -1731.821 -1685.451 -1623.707 -1552.350 -1484.785 -1418.837 -1356.819 -1298.877 -1242.496 -1185.698 -1126.790 -1064.701 -999.354 -931.746 -863.024 -793.847 -724.367 -654.917 -587.430 -527.452 -483.111 -457.660 -445.173 -437.398 -430.436 -423.558 -416.568 -409.192 -401.198 -392.600 -383.751 -375.204 -367.423 -360.537 -354.243 -348.036 -341.592 -334.870 -327.997 -321.349 -315.640 -311.432 -308.482 -306.020 -303.514 -300.791 -297.686 -293.891 -289.090 -283.012 -275.388 -266.172 -255.723 -244.483 -233.010 -222.639 -214.773 -209.228 -204.630 -200.051 -195.272 -190.291 -185.166 -180.025 -175.023 -170.316 -166.047 -162.256 -158.858 -155.762 -152.953 -150.453 -148.272 -146.396 -144.797 -143.437 -142.281 -141.322 -140.541 -139.871 -139.244 -138.635 -138.038 -137.416 -136.716 -135.925 -135.082 -134.240 -133.451 -132.743 -132.121 -131.598 -131.169 -130.795 -130.391 -129.859 -129.141 -128.225 -127.122 -125.866 -124.532 -123.220 -122.002 -120.903 -119.892 -118.869 -117.725 -116.448 -115.107 -113.756 -112.378 -110.856 -108.959 -106.527 -103.593 -99.934 -94.744 -86.732 -74.403 -58.069 -41.265 -27.728 -18.568 -13.343 -11.145 -10.598 -10.598
-1917.080 -1845.812 -1786.455 -1726.060 -1663.816 -1601.007 -1538.043 -1471.771 -1406.074 -1344.294 -1286.339 -1230.628 -1174.846 -1117.225 -1056.801 -993.262 -927.357 -860.217 -792.601 -724.675 -656.574 -589.804 -529.542 -484.052 -457.267 -443.818 -435.442 -428.048 -420.874 -413.762 -406.434 -398.638 -390.396 -382.086 -374.206 -367.085 -360.720 -354.782 -348.832 -342.608 -336.072 -329.316 -322.685 -316.931 -312.740 -309.952 -307.758 -305.548 -303.082 -300.107 -296.222 -291.092 -284.540 -276.497 -267.136 -256.883 -246.088 -235.135 -225.096 -217.230 -211.497 -206.711 -201.966 -197.024 -191.874 -186.551 -181.139 -175.759 -170.590 -165.868 -161.775 -158.280 -155.214 -152.472 -150.040 -147.910 -146.056 -144.454 -143.084 -141.931 -140.981 -140.206 -139.538 -138.916 -138.327 -137.769 -137.194 -136.515 -135.698 -134.812 -133.997 -133.353 -132.865 -132.445 -132.032 -131.619 -131.226 -130.833 -130.349 -129.650 -128.678 -127.475 -126.141 -124.777 -123.468 -122.264 -121.161 -120.102 -119.003 -117.818 -116.562 -115.273 -113.942 -112.520 -110.907 -108.879 -106.226 -102.946 -98.856 -93.079 -84.099 -70.683 -54.000 -37.901 -25.489 -17.287 -12.731 -10.918 -10.517 -10.517
-1910.036 -1843.561 -1780.895 -1719.540 -1654.953 -1588.503 -1524.695 -1458.401 -1392.958 -1331.532 -1274.079 -1218.799 -1163.831 -1107.433 -1048.496 -986.552 -922.190 -856.526 -790.367 -723.918 -657.252 -591.921 -533.202 -488.697 -461.384 -446.226 -436.081 -427.330 -419.182 -411.467 -403.914 -396.206 -388.301 -380.536 -373.326 -366.849 -360.975 -355.353 -349.622 -343.593 -337.232 -330.627 -324.136 -318.510 -314.417 -311.738 -309.738 -307.819 -305.659 -302.843 -298.831 -293.290 -286.214 -277.782 -268.336 -258.287 -247.898 -237.455 -227.798 -219.981 -214.058 -209.045 -204.103 -198.977 -193.655 -188.156 -182.521 -176.820 -171.198 -165.956 -161.445 -157.755 -154.660 -151.937 -149.530 -147.430 -145.608 -144.040 -142.716 -141.621 -140.719 -139.956 -139.268 -138.622 -138.025 -137.496 -136.995 -136.408 -135.661 -134.824 -134.077 -133.544 -133.190 -132.895 -132.570 -132.192 -131.779 -131.341 -130.804 -130.032 -128.960 -127.673 -126.306 -124.946 -123.654 -122.468 -121.365 -120.267 -119.104 -117.881 -116.635 -115.376 -114.051 -112.581 -110.866 -108.695 -105.830 -102.228 -97.674 -91.023 -80.465 -65.488 -48.563 -33.583 -22.644 -15.687 -12.032 -10.701 -10.448 -10.448
-1891.251 -1831.886 -1772.944 -1710.075 -1645.155 -1577.476 -1511.845 -1444.908 -1379.448 -1318.453 -1261.638 -1207.048 -1152.879 -1097.528 -1039.856 -979.321 -916.371 -852.074 -787.260 -722.188 -657.040 -593.831 -538.152 -496.231 -468.991 -451.648 -438.929 -428.161 -418.530 -409.803 -401.723 -393.941 -386.327 -379.118 -372.588 -366.739 -361.315 -355.968 -350.429 -344.572 -338.379 -331.960 -325.712 -320.338 -316.383 -313.736 -311.824 -310.168 -308.376 -305.786 -301.623 -295.593 -287.982 -279.249 -269.812 -259.984 -249.934 -239.893 -230.554 -222.816 -216.771 -211.584 -206.473 -201.173 -195.665 -189.976 -184.131 -178.142 -172.096 -166.320 -161.331 -157.364 -154.150 -151.358 -148.905 -146.803 -145.025 -143.532 -142.298 -141.298 -140.479 -139.761 -139.073 -138.399 -137.782 -137.276 -136.856 -136.400 -135.799 -135.090 -134.432 -133.952 -133.642 -133.403 -133.136 -132.782 -132.331 -131.787 -131.103 -130.181 -128.998 -127.662 -126.291 -124.948 -123.691 -122.561 -121.517 -120.441 -119.257 -118.000 -116.737 -115.470 -114.126 -112.598 -110.779 -108.490 -105.489 -101.631 -96.431 -88.264 -75.424 -58.823 -42.175 -28.783 -19.540 -13.978 -11.338 -10.517 -10.394 -10.394
-1877.974 -1823.682 -1767.446 -1701.624 -1635.220 -1566.920 -1498.668 -1431.392 -1365.823 -1305.113 -1249.134 -1195.387 -1142.002 -1087.572 -1030.984 -971.713 -910.093 -847.090 -783.510 -719.679 -656.147 -595.711 -544.009 -505.268 -478.279 -458.723 -443.247 -430.191 -418.811 -408.800 -399.936 -391.905 -384.531 -377.894 -372.037 -366.752 -361.708 -356.605 -351.255 -345.572 -339.551 -333.343 -327.378 -322.267 -318.400 -315.675 -313.718 -312.225 -310.795 -308.494 -304.227 -297.748 -289.718 -280.863 -271.568 -262.004 -252.262 -242.544 -233.462 -225.815 -219.712 -214.406 -209.157 -203.690 -197.977 -192.054 -185.949 -179.631 -173.130 -166.824 -161.387 -157.139 -153.745 -150.793 -148.206 -146.056 -144.334 -142.955 -141.838 -140.948 -140.244 -139.629 -139.000 -138.341 -137.723 -137.226 -136.839 -136.453 -135.957 -135.351 -134.756 -134.306 -134.037 -133.870 -133.664 -133.311 -132.778 -132.083 -131.217 -130.142 -128.888 -127.551 -126.204 -124.886 -123.675 -122.631 -121.692 -120.693 -119.526 -118.238 -116.925 -115.610 -114.218 -112.620 -110.704 -108.322 -105.233 -101.093 -94.857 -84.439 -69.017 -51.366 -35.717 -24.185 -16.671 -12.502 -10.799 -10.388 -10.350 -10.350
-1869.752 -1815.403 -1760.310 -1695.958 -1627.474 -1556.150 -1485.145 -1417.450 -1351.852 -1291.648 -1236.573 -1183.826 -1131.280 -1077.687 -1022.051 -963.924 -903.581 -841.851 -779.442 -716.763 -654.994 -597.867 -550.500 -514.742 -487.883 -466.413 -448.453 -433.131 -419.895 -408.448 -398.619 -390.208 -383.037 -376.956 -371.682 -366.827 -362.072 -357.200 -352.071 -346.597 -340.772 -334.787 -329.083 -324.169 -320.298 -317.379 -315.210 -313.658 -312.385 -310.307 -306.068 -299.410 -291.270 -282.545 -273.549 -264.333 -254.932 -245.540 -236.727 -229.204 -223.063 -217.633 -212.238 -206.604 -200.675 -194.472 -188.015 -181.224 -174.115 -167.242 -161.466 -157.044 -153.489 -150.353 -147.602 -145.374 -143.696 -142.425 -141.412 -140.624 -140.046 -139.570 -139.063 -138.489 -137.918 -137.418 -136.983 -136.540 -136.014 -135.412 -134.841 -134.440 -134.267 -134.220 -134.093 -133.721 -133.075 -132.228 -131.230 -130.088 -128.840 -127.554 -126.263 -124.996 -123.836 -122.855 -121.983 -121.029 -119.859 -118.518 -117.129 -115.746 -114.303 -112.653 -110.668 -108.215 -105.015 -100.368 -92.496 -79.318 -61.690 -43.964 -29.880 -20.214 -14.327 -11.432 -10.471 -10.313 -10.312 -10.312
-1872.432 -1807.050 -1751.850 -1690.254 -1621.105 -1548.419 -1472.934 -1402.870 -1337.331 -1277.885 -1223.818 -1172.369 -1120.870 -1068.079 -1013.269 -956.147 -897.017 -836.560 -775.351 -713.938 -654.259 -600.718 -557.367 -523.910 -496.997 -474.060 -454.110 -436.741 -421.666 -408.718 -397.837 -388.975 -381.952 -376.319 -371.450 -366.860 -362.311 -357.669 -352.813 -347.616 -342.038 -336.281 -330.786 -325.981 -322.026 -318.840 -316.327 -314.464 -313.008 -310.937 -306.854 -300.415 -292.555 -284.206 -275.657 -266.900 -257.942 -248.983 -240.558 -233.241 -227.047 -221.417 -215.817 -209.997 -203.851 -197.344 -190.444 -183.015 -175.142 -167.686 -161.685 -157.170 -153.467 -150.190 -147.353 -145.068 -143.370 -142.124 -141.162 -140.443 -139.960 -139.600 -139.230 -138.800 -138.331 -137.837 -137.293 -136.669 -135.979 -135.297 -134.743 -134.436 -134.390 -134.446 -134.355 -133.933 -133.178 -132.232 -131.202 -130.103 -128.937 -127.731 -126.510 -125.306 -124.194 -123.229 -122.349 -121.365 -120.134 -118.705 -117.224 -115.770 -114.288 -112.618 -110.601 -108.087 -104.663 -99.081 -88.952 -73.009 -54.125 -37.269 -24.977 -17.037 -12.608 -10.762 -10.304 -10.269 -10.277 -10.277
-1886.020 -1817.194 -1747.729 -1684.531 -1614.600 -1540.272 -1462.775 -1388.890 -1322.361 -1263.870 -1211.157 -1161.186 -1110.892 -1058.964 -1004.874 -948.604 -890.586 -831.392 -771.486 -711.674 -654.542 -604.524 -564.321 -532.310 -505.238 -481.270 -459.831 -440.733 -423.933 -409.487 -397.536 -388.194 -381.221 -375.854 -371.204 -366.757 -362.357 -357.938 -353.393 -348.555 -343.301 -337.778 -332.422 -327.633 -323.536 -320.071 -317.186 -314.890 -313.011 -310.737 -306.845 -300.892 -293.593 -285.792 -277.803 -269.622 -261.240 -252.866 -244.986 -237.997 -231.787 -225.920 -220.062 -214.033 -207.686 -200.900 -193.565 -185.542 -177.055 -169.162 -162.891 -158.099 -154.105 -150.686 -147.838 -145.483 -143.604 -142.195 -141.171 -140.463 -140.020 -139.733 -139.486 -139.216 -138.884 -138.422 -137.756 -136.890 -135.959 -135.158 -134.643 -134.465 -134.526 -134.605 -134.463 -133.968 -133.158 -132.192 -131.197 -130.185 -129.108 -127.956 -126.763 -125.582 -124.480 -123.498 -122.575 -121.532 -120.231 -118.724 -117.168 -115.647 -114.117 -112.419 -110.363 -107.739 -103.889 -96.896 -84.190 -66.042 -47.001 -31.617 -21.072 -14.655 -11.469 -10.395 -10.224 -10.236 -10.245 -10.245
-1899.830 -1830.836 -1760.192 -1681.120 -1607.447 -1531.796 -1452.334 -1375.138 -1308.194 -1249.976 -1198.722 -1150.408 -1101.519 -1050.501 -997.075 -941.576 -884.608 -826.682 -768.230 -710.370 -656.039 -609.120 -571.087 -539.851 -512.589 -487.884 -465.310 -444.773 -426.393 -410.482 -397.474 -387.650 -380.642 -375.391 -370.838 -366.468 -362.176 -357.942 -353.697 -349.260 -344.396 -339.125 -333.851 -329.006 -324.744 -321.030 -317.824 -315.117 -312.770 -310.196 -306.444 -301.042 -294.426 -287.280 -279.937 -272.433 -264.751 -257.076 -249.834 -243.277 -237.182 -231.197 -225.161 -218.988 -212.517 -205.558 -197.964 -189.697 -181.092 -173.041 -166.338 -160.925 -156.393 -152.678 -149.708 -147.139 -144.810 -142.881 -141.492 -140.627 -140.172 -139.955 -139.822 -139.688 -139.476 -139.063 -138.319 -137.264 -136.125 -135.213 -134.735 -134.662 -134.770 -134.802 -134.584 -134.058 -133.263 -132.317 -131.339 -130.351 -129.297 -128.145 -126.926 -125.704 -124.556 -123.525 -122.547 -121.454 -120.125 -118.609 -117.035 -115.465 -113.864 -112.084 -109.884 -106.983 -102.406 -93.543 -78.239 -58.745 -40.508 -26.906 -18.015 -12.950 -10.769 -10.213 -10.182 -10.206 -10.216 -10.216
-1913.666 -1836.928 -1759.329 -1679.866 -1601.958 -1523.886 -1441.973 -1362.187 -1294.245 -1236.795 -1186.876 -1140.165 -1092.800 -1042.755 -990.018 -935.346 -879.493 -822.915 -766.077 -710.343 -658.646 -614.136 -577.492 -546.644 -519.177 -493.871 -470.361 -448.588 -428.746 -411.396 -397.356 -387.093 -380.044 -374.844 -370.323 -365.987 -361.754 -357.631 -353.594 -349.482 -344.995 -340.012 -334.850 -329.967 -325.575 -321.674 -318.219 -315.174 -312.410 -309.515 -305.825 -300.935 -295.046 -288.634 -282.017 -275.273 -268.378 -261.468 -254.900 -248.822 -242.965 -237.057 -231.063 -224.953 -218.524 -211.539 -203.917 -195.797 -187.541 -179.666 -172.627 -166.554 -161.375 -157.154 -153.787 -150.733 -147.633 -144.730 -142.475 -141.101 -140.500 -140.324 -140.264 -140.182 -140.008 -139.620 -138.878 -137.794 -136.610 -135.674 -135.200 -135.113 -135.154 -135.096 -134.833 -134.333 -133.580 -132.627 -131.595 -130.550 -129.461 -128.297 -127.070 -125.824 -124.627 -123.523 -122.454 -121.290 -119.950 -118.468 -116.926 -115.341 -113.664 -111.733 -109.218 -105.692 -99.777 -88.511 -70.889 -51.073 -34.416 -22.777 -15.521 -11.728 -10.354 -10.125 -10.155 -10.179 -10.188 -10.188
-1911.323 -1835.610 -1758.520 -1678.719 -1596.783 -1517.509 -1433.317 -1351.193 -1281.567 -1225.014 -1176.195 -1130.689 -1084.597 -1035.662 -983.840 -930.171 -875.560 -820.451 -765.334 -711.639 -662.081 -619.235 -583.438 -552.781 -525.089 -499.231 -474.894 -452.025 -430.823 -412.063 -397.020 -386.404 -379.378 -374.219 -369.683 -365.330 -361.098 -356.997 -353.022 -349.056 -344.834 -340.171 -335.240 -330.434 -326.003 -321.988 -318.354 -315.047 -311.932 -308.712 -304.993 -300.527 -295.368 -289.762 -283.954 -278.044 -272.002 -265.922 -260.077 -254.486 -248.866 -243.109 -237.322 -231.471 -225.261 -218.405 -210.929 -203.167 -195.492 -188.128 -181.214 -174.901 -169.320 -164.595 -160.582 -156.677 -152.465 -148.254 -144.765 -142.535 -141.508 -141.170 -141.036 -140.867 -140.581 -140.115 -139.388 -138.405 -137.347 -136.489 -135.983 -135.753 -135.613 -135.410 -135.070 -134.544 -133.770 -132.770 -131.675 -130.578 -129.480 -128.364 -127.222 -126.054 -124.875 -123.700 -122.500 -121.221 -119.837 -118.374 -116.864 -115.276 -113.536 -111.438 -108.502 -103.912 -95.774 -81.622 -62.402 -43.377 -28.785 -19.121 -13.454 -10.851 -10.120 -10.083 -10.132 -10.155 -10.162 -10.162
-1909.080 -1832.240 -1756.041 -1677.609 -1593.791 -1511.864 -1426.597 -1343.756 -1272.266 -1215.453 -1166.460 -1121.526 -1076.639 -1029.127 -978.604 -926.190 -872.927 -819.338 -765.902 -713.935 -665.898 -624.093 -588.807 -558.267 -530.366 -503.997 -478.905 -455.049 -432.587 -412.457 -396.455 -385.594 -378.682 -373.571 -368.974 -364.548 -360.256 -356.101 -352.073 -348.095 -343.997 -339.623 -335.015 -330.412 -326.042 -321.989 -318.247 -314.764 -311.393 -307.866 -303.985 -299.755 -295.236 -290.473 -285.566 -280.581 -275.462 -270.271 -265.195 -260.099 -254.682 -249.030 -243.424 -237.832 -231.903 -225.338 -218.222 -210.960 -203.930 -197.239 -190.851 -184.838 -179.355 -174.455 -169.825 -164.875 -159.379 -153.835 -149.157 -145.977 -144.180 -143.274 -142.817 -142.428 -141.858 -141.083 -140.173 -139.188 -138.215 -137.397 -136.814 -136.411 -136.066 -135.669 -135.143 -134.437 -133.534 -132.490 -131.415 -130.368 -129.345 -128.339 -127.337 -126.300 -125.178 -123.944 -122.608 -121.203 -119.754 -118.281 -116.777 -115.181 -113.403 -111.189 -107.852 -101.922 -90.978 -73.892 -53.932 -36.451 -23.987 -16.123 -11.892 -10.282 -10.005 -10.063 -10.112 -10.132 -10.137 -10.137
-1906.850 -1828.869 -1752.565 -1673.954 -1591.320 -1507.738 -1423.015 -1339.248 -1265.635 -1207.133 -1157.548 -1112.555 -1068.543 -1022.693 -973.995 -923.172 -871.347 -819.215 -767.267 -716.643 -669.615 -628.444 -593.503 -563.079 -535.033 -508.231 -482.461 -457.723 -434.143 -412.784 -395.939 -384.916 -378.138 -373.032 -368.312 -363.741 -359.318 -355.051 -350.917 -346.856 -342.780 -338.601 -334.294 -329.951 -325.720 -321.704 -317.947 -314.446 -311.029 -307.306 -303.093 -298.713 -294.512 -290.484 -286.521 -282.546 -278.416 -274.123 -269.807 -265.281 -260.200 -254.699 -249.183 -243.712 -237.992 -231.799 -225.250 -218.666 -212.297 -206.208 -200.394 -194.920 -189.886 -185.217 -180.427 -174.905 -168.604 -162.256 -156.870 -152.902 -150.073 -148.118 -146.939 -146.115 -145.093 -143.711 -142.190 -140.779 -139.549 -138.511 -137.707 -137.115 -136.599 -135.999 -135.219 -134.254 -133.182 -132.122 -131.154 -130.244 -129.330 -128.404 -127.470 -126.480 -125.352 -124.042 -122.593 -121.092 -119.592 -118.104 -116.599 -115.001 -113.206 -110.923 -107.185 -99.748 -85.981 -66.543 -46.574 -30.807 -20.208 -13.881 -10.863 -9.982 -9.961 -10.052 -10.095 -10.110 -10.112 -10.112
-1906.136 -1826.266 -1749.088 -1668.354 -1583.023 -1494.707 -1417.778 -1335.558 -1260.425 -1199.549 -1149.024 -1103.607 -1060.073 -1015.737 -969.122 -920.258 -870.032 -819.298 -768.651 -719.119 -672.856 -632.171 -597.527 -567.215 -539.067 -511.932 -485.615 -460.176 -435.804 -413.673 -396.302 -385.074 -378.180 -372.871 -367.896 -363.069 -358.413 -353.956 -349.677 -345.510 -341.397 -337.306 -333.207 -329.103 -325.051 -321.148 -317.513 -314.240 -311.144 -307.542 -302.926 -297.853 -293.339 -289.674 -286.521 -283.517 -280.364 -276.944 -273.378 -269.571 -265.124 -259.996 -254.603 -249.171 -243.549 -237.659 -231.710 -225.917 -220.280 -214.744 -209.386 -204.361 -199.772 -195.532 -191.165 -186.021 -179.988 -173.805 -168.411 -164.023 -160.237 -157.004 -154.640 -152.949 -151.213 -148.969 -146.420 -144.068 -142.120 -140.504 -139.214 -138.275 -137.525 -136.709 -135.701 -134.544 -133.373 -132.325 -131.437 -130.605 -129.715 -128.756 -127.750 -126.668 -125.436 -124.022 -122.479 -120.897 -119.339 -117.820 -116.308 -114.716 -112.899 -110.502 -106.179 -96.957 -80.625 -59.803 -40.521 -26.400 -17.342 -12.290 -10.238 -9.855 -9.955 -10.044 -10.079 -10.088 -10.087 -10.087
-1907.735 -1829.625 -1745.818 -1659.114 -1573.864 -1484.376 -1404.123 -1326.663 -1254.757 -1191.968 -1140.585 -1094.574 -1051.104 -1007.840 -963.130 -916.368 -867.947 -818.682 -769.312 -720.863 -675.406 -635.277 -600.959 -570.708 -542.407 -514.993 -488.304 -462.487 -437.906 -415.797 -398.416 -386.841 -379.344 -373.445 -367.990 -362.749 -357.713 -352.936 -348.428 -344.114 -339.925 -335.848 -331.861 -327.928 -324.050 -320.320 -316.955 -314.198 -311.871 -308.880 -304.025 -297.834 -292.278 -288.416 -285.756 -283.499 -281.150 -278.501 -275.644 -272.603 -269.001 -264.560 -259.518 -254.191 -248.638 -242.984 -237.567 -232.553 -227.718 -222.802 -217.851 -213.134 -208.867 -205.061 -201.363 -197.135 -192.066 -186.651 -181.663 -177.230 -172.935 -168.760 -165.200 -162.377 -159.685 -156.480 -152.830 -149.344 -146.427 -144.036 -142.079 -140.571 -139.387 -138.238 -136.967 -135.651 -134.428 -133.357 -132.401 -131.459 -130.449 -129.364 -128.216 -126.982 -125.618 -124.109 -122.476 -120.784 -119.111 -117.505 -115.944 -114.326 -112.439 -109.784 -104.564 -93.335 -74.856 -53.560 -35.486 -22.933 -15.195 -11.211 -9.887 -9.815 -9.961 -10.037 -10.064 -10.066 -10.060 -10.060
-1915.702 -1838.353 -1759.584 -1664.342 -1566.157 -1475.280 -1389.886 -1314.372 -1244.028 -1183.626 -1131.883 -1085.350 -1041.736 -999.045 -955.752 -910.904 -864.362 -816.687 -768.690 -721.475 -677.075 -637.746 -603.849 -573.586 -545.019 -517.310 -490.419 -464.635 -440.497 -419.150 -402.228 -390.278 -381.845 -375.023 -368.849 -363.027 -357.469 -352.215 -347.321 -342.743 -338.408 -334.288 -330.347 -326.523 -322.784 -319.243 -316.258 -314.268 -313.121 -311.235 -306.428 -298.929 -291.836 -287.315 -284.807 -283.008 -281.187 -279.068 -276.713 -274.246 -271.451 -267.941 -263.606 -258.620 -253.258 -247.935 -243.096 -238.822 -234.719 -230.364 -225.757 -221.268 -217.264 -213.851 -210.734 -207.244 -202.917 -198.055 -193.327 -188.910 -184.494 -180.012 -175.847 -172.218 -168.737 -164.828 -160.439 -156.099 -152.333 -149.234 -146.644 -144.476 -142.650 -140.948 -139.226 -137.585 -136.157 -134.903 -133.704 -132.501 -131.290 -130.065 -128.796 -127.444 -125.987 -124.406 -122.687 -120.870 -119.051 -117.315 -115.655 -113.938 -111.881 -108.786 -102.398 -89.197 -69.188 -48.074 -31.368 -20.217 -13.622 -10.539 -9.735 -9.821 -9.970 -10.031 -10.047 -10.042 -10.031 -10.031
-1924.069 -1847.239 -1768.367 -1677.646 -1578.166 -1475.624 -1375.425 -1302.434 -1234.158 -1174.179 -1122.271 -1075.744 -1032.044 -989.614 -947.227 -903.868 -859.029 -812.919 -766.309 -720.465 -677.461 -639.299 -606.000 -575.738 -546.875 -518.887 -491.968 -466.591 -443.352 -423.133 -406.915 -394.753 -385.443 -377.630 -370.616 -364.121 -357.988 -352.177 -346.729 -341.665 -336.987 -332.697 -328.739 -324.993 -321.368 -317.989 -315.363 -314.159 -314.315 -313.842 -309.478 -300.875 -292.143 -286.687 -284.036 -282.448 -280.935 -279.115 -277.023 -274.876 -272.670 -270.062 -266.652 -262.333 -257.455 -252.701 -248.609 -245.100 -241.568 -237.519 -233.045 -228.662 -224.829 -221.702 -218.951 -215.767 -211.597 -206.778 -201.981 -197.431 -192.980 -188.560 -184.329 -180.419 -176.624 -172.508 -167.926 -163.256 -159.031 -155.451 -152.354 -149.556 -146.996 -144.592 -142.269 -140.109 -138.234 -136.587 -135.030 -133.529 -132.123 -130.794 -129.452 -128.028 -126.500 -124.849 -123.058 -121.157 -119.240 -117.398 -115.623 -113.727 -111.346 -107.609 -99.952 -85.149 -64.363 -43.843 -28.355 -18.297 -12.586 -10.179 -9.710 -9.852 -9.978 -10.023 -10.029 -10.015 -10.001 -10.001
-1925.897 -1852.427 -1777.126 -1691.135 -1590.267 -1481.525 -1373.882 -1291.174 -1223.864 -1164.085 -1112.121 -1065.597 -1021.943 -979.731 -937.909 -895.580 -852.074 -807.291 -761.930 -717.500 -676.146 -639.437 -606.927 -576.826 -547.835 -519.738 -493.019 -468.336 -446.223 -427.220 -411.781 -399.624 -389.704 -381.061 -373.255 -366.099 -359.434 -353.114 -347.059 -341.304 -335.992 -331.274 -327.155 -323.444 -319.912 -316.580 -313.988 -312.981 -313.765 -314.456 -311.202 -302.663 -292.967 -286.544 -283.489 -281.902 -280.569 -278.983 -277.108 -275.192 -273.348 -271.331 -268.714 -265.246 -261.176 -257.222 -253.963 -251.218 -248.188 -244.307 -239.810 -235.373 -231.504 -228.362 -225.592 -222.319 -217.990 -213.008 -208.033 -203.302 -198.784 -194.432 -190.250 -186.277 -182.402 -178.314 -173.853 -169.297 -165.083 -161.358 -157.947 -154.645 -151.433 -148.378 -145.505 -142.843 -140.463 -138.352 -136.419 -134.647 -133.088 -131.695 -130.306 -128.805 -127.178 -125.439 -123.592 -121.654 -119.688 -117.765 -115.852 -113.700 -110.853 -106.330 -97.578 -81.862 -61.021 -41.238 -26.643 -17.280 -12.097 -10.061 -9.744 -9.885 -9.983 -10.012 -10.008 -9.987 -9.968 -9.968
-1927.791 -1854.220 -1778.933 -1693.103 -1592.601 -1481.675 -1371.914 -1278.250 -1212.041 -1153.186 -1101.524 -1055.018 -1011.470 -969.402 -928.002 -886.439 -843.920 -800.184 -755.927 -712.912 -673.233 -637.918 -606.188 -576.434 -547.624 -519.745 -493.529 -469.792 -448.944 -431.183 -416.548 -404.540 -394.249 -384.997 -376.535 -368.787 -361.642 -354.893 -348.314 -341.864 -335.771 -330.381 -325.872 -322.056 -318.513 -314.965 -311.722 -309.698 -309.553 -310.196 -308.291 -301.635 -292.911 -286.458 -283.159 -281.464 -280.203 -278.843 -277.244 -275.575 -273.954 -272.219 -270.080 -267.355 -264.171 -261.037 -258.445 -256.268 -253.745 -250.233 -245.881 -241.363 -237.244 -233.710 -230.460 -226.790 -222.278 -217.221 -212.136 -207.262 -202.641 -198.255 -194.069 -190.043 -186.043 -181.876 -177.529 -173.274 -169.393 -165.874 -162.468 -158.963 -155.373 -151.864 -148.562 -145.508 -142.740 -140.275 -138.061 -136.092 -134.417 -132.961 -131.495 -129.854 -128.073 -126.242 -124.368 -122.407 -120.375 -118.317 -116.182 -113.690 -110.288 -104.873 -95.063 -78.787 -58.319 -39.432 -25.634 -16.793 -11.931 -10.068 -9.796 -9.912 -9.983 -9.998 -9.983 -9.955 -9.933 -9.933
-1928.785 -1847.801 -1765.156 -1679.148 -1583.533 -1478.027 -1369.563 -1268.701 -1199.357 -1141.254 -1090.167 -1043.831 -1000.381 -958.663 -917.685 -876.725 -835.041 -792.255 -749.090 -707.451 -669.203 -634.893 -603.701 -574.358 -546.023 -518.741 -493.393 -470.882 -451.463 -434.989 -421.154 -409.343 -398.821 -389.133 -380.154 -371.880 -364.260 -357.090 -350.070 -343.079 -336.333 -330.264 -325.204 -321.063 -317.286 -313.192 -308.658 -304.524 -301.890 -300.732 -299.197 -295.321 -289.937 -285.585 -283.006 -281.366 -280.084 -278.855 -277.471 -275.987 -274.501 -272.919 -271.056 -268.815 -266.261 -263.681 -261.420 -259.488 -257.383 -254.462 -250.546 -246.061 -241.626 -237.562 -233.711 -229.634 -225.033 -219.992 -214.829 -209.795 -204.999 -200.484 -196.263 -192.235 -188.185 -183.966 -179.706 -175.718 -172.186 -168.995 -165.853 -162.514 -158.915 -155.177 -151.497 -148.053 -144.970 -142.282 -139.920 -137.836 -136.045 -134.448 -132.788 -130.920 -128.967 -127.087 -125.243 -123.290 -121.178 -118.925 -116.460 -113.511 -109.424 -102.744 -91.192 -73.881 -53.978 -36.548 -24.022 -16.005 -11.646 -10.038 -9.833 -9.931 -9.979 -9.980 -9.956 -9.922 -9.896 -9.896
-1915.449 -1836.554 -1751.095 -1665.043 -1572.757 -1466.805 -1359.746 -1261.507 -1185.976 -1128.606 -1078.116 -1032.298 -989.075 -947.581 -906.990 -866.565 -825.665 -783.884 -741.888 -701.481 -664.254 -630.519 -599.633 -570.704 -543.059 -516.750 -492.687 -471.734 -453.908 -438.714 -425.599 -413.963 -403.280 -393.267 -383.871 -375.130 -367.025 -359.374 -351.898 -344.478 -337.307 -330.763 -325.186 -320.573 -316.339 -311.523 -305.594 -299.145 -293.412 -289.253 -286.687 -285.115 -284.146 -283.598 -282.880 -281.687 -280.383 -279.148 -277.821 -276.384 -274.949 -273.499 -271.861 -269.877 -267.553 -265.123 -262.903 -261.009 -259.151 -256.708 -253.195 -248.780 -244.124 -239.719 -235.563 -231.359 -226.790 -221.763 -216.491 -211.250 -206.200 -201.488 -197.226 -193.320 -189.484 -185.498 -181.458 -177.665 -174.303 -171.298 -168.426 -165.423 -162.066 -158.292 -154.300 -150.454 -147.065 -144.210 -141.749 -139.548 -137.559 -135.664 -133.667 -131.520 -129.430 -127.561 -125.801 -123.921 -121.810 -119.401 -116.538 -112.992 -107.982 -99.432 -85.222 -66.377 -47.317 -31.965 -21.275 -14.558 -11.080 -9.933 -9.854 -9.942 -9.969 -9.957 -9.925 -9.886 -9.858 -9.858
-1899.116 -1829.777 -1743.113 -1653.103 -1559.080 -1455.324 -1349.068 -1252.325 -1172.525 -1115.448 -1065.580 -1020.285 -977.526 -936.295 -895.969 -855.955 -815.753 -774.997 -734.175 -694.772 -658.183 -624.788 -594.206 -565.810 -539.067 -514.088 -491.736 -472.639 -456.455 -442.403 -429.861 -418.361 -407.564 -397.295 -387.545 -378.376 -369.770 -361.566 -353.569 -345.747 -338.292 -331.491 -325.577 -320.520 -315.760 -310.286 -303.357 -295.230 -286.919 -279.832 -275.731 -275.544 -278.143 -281.105 -282.471 -282.017 -280.816 -279.593 -278.310 -276.881 -275.447 -274.093 -272.622 -270.704 -268.269 -265.636 -263.228 -261.226 -259.413 -257.153 -253.830 -249.495 -244.811 -240.348 -236.182 -232.040 -227.539 -222.499 -217.119 -211.699 -206.439 -201.587 -197.367 -193.711 -190.266 -186.714 -183.029 -179.438 -176.141 -173.164 -170.387 -167.582 -164.435 -160.731 -156.609 -152.537 -148.965 -145.990 -143.407 -141.010 -138.699 -136.378 -133.974 -131.574 -129.397 -127.544 -125.843 -124.055 -122.040 -119.598 -116.385 -112.157 -106.012 -95.284 -78.299 -58.169 -40.190 -26.927 -18.098 -12.853 -10.449 -9.838 -9.875 -9.946 -9.954 -9.931 -9.891 -9.849 -9.819 -9.819
-1882.628 -1821.500 -1736.213 -1645.976 -1544.218 -1441.050 -1343.781 -1244.500 -1162.527 -1102.338 -1052.870 -1007.985 -965.725 -924.785 -884.724 -845.000 -805.281 -765.372 -725.559 -686.910 -650.728 -617.690 -587.687 -560.167 -534.631 -511.239 -490.783 -473.590 -458.945 -445.881 -433.835 -422.500 -411.653 -401.174 -391.092 -381.481 -372.307 -363.476 -354.938 -346.745 -339.088 -332.207 -326.204 -320.902 -315.728 -309.783 -302.355 -293.478 -283.905 -275.282 -270.293 -270.562 -274.566 -279.062 -281.615 -281.802 -280.821 -279.754 -278.678 -277.368 -275.928 -274.575 -273.137 -271.133 -268.410 -265.371 -262.511 -260.081 -257.985 -255.702 -252.615 -248.637 -244.246 -239.940 -235.841 -231.717 -227.204 -222.137 -216.704 -211.208 -205.900 -201.116 -197.140 -193.836 -190.767 -187.595 -184.267 -180.930 -177.747 -174.764 -171.910 -169.024 -165.867 -162.242 -158.229 -154.247 -150.710 -147.679 -144.937 -142.279 -139.603 -136.870 -134.132 -131.556 -129.320 -127.431 -125.697 -123.932 -122.013 -119.643 -116.234 -111.350 -103.962 -91.235 -72.219 -51.499 -34.549 -22.837 -15.449 -11.472 -9.998 -9.804 -9.898 -9.943 -9.934 -9.900 -9.856 -9.810 -9.779 -9.779
-1861.141 -1802.920 -1720.717 -1621.233 -1517.059 -1408.451 -1318.037 -1231.989 -1152.620 -1089.027 -1040.053 -995.642 -953.820 -913.275 -873.369 -833.797 -794.382 -755.028 -715.882 -677.700 -641.817 -609.338 -580.402 -554.318 -530.383 -508.629 -489.748 -474.051 -460.762 -448.742 -437.341 -426.323 -415.532 -404.884 -394.441 -384.286 -374.434 -364.968 -356.000 -347.554 -339.782 -332.976 -327.149 -321.892 -316.536 -310.333 -302.770 -293.911 -284.486 -276.137 -271.280 -271.168 -274.410 -278.353 -280.876 -281.237 -280.293 -279.250 -278.353 -277.228 -275.808 -274.349 -272.773 -270.604 -267.651 -264.230 -260.742 -257.530 -254.814 -252.392 -249.743 -246.530 -242.822 -238.885 -234.896 -230.771 -226.253 -221.212 -215.801 -210.294 -205.019 -200.441 -196.857 -193.986 -191.255 -188.360 -185.323 -182.264 -179.259 -176.288 -173.270 -170.136 -166.828 -163.277 -159.531 -155.835 -152.435 -149.341 -146.392 -143.452 -140.470 -137.480 -134.593 -131.962 -129.690 -127.720 -125.886 -124.061 -122.154 -119.846 -116.340 -110.807 -102.004 -87.484 -67.293 -46.679 -30.683 -20.057 -13.707 -10.671 -9.808 -9.820 -9.915 -9.933 -9.909 -9.867 -9.818 -9.770 -9.737 -9.737
-1823.483 -1752.403 -1678.090 -1587.834 -1490.187 -1383.220 -1286.743 -1205.772 -1134.489 -1075.998 -1027.639 -983.590 -941.983 -901.628 -861.889 -822.461 -783.241 -744.197 -705.389 -667.425 -631.829 -600.241 -572.973 -548.930 -526.936 -506.682 -488.731 -473.774 -461.521 -450.702 -440.257 -429.805 -419.206 -408.404 -397.499 -386.646 -376.085 -366.216 -357.187 -348.770 -341.016 -334.340 -328.762 -323.686 -318.329 -312.055 -304.590 -296.195 -287.720 -280.586 -276.308 -275.404 -276.962 -279.428 -281.234 -281.309 -279.929 -278.302 -277.072 -275.955 -274.591 -272.986 -271.117 -268.734 -265.710 -262.113 -258.111 -254.131 -250.753 -248.147 -245.918 -243.540 -240.692 -237.329 -233.615 -229.656 -225.333 -220.499 -215.203 -209.686 -204.378 -199.907 -196.642 -194.194 -191.846 -189.263 -186.505 -183.698 -180.861 -177.895 -174.697 -171.303 -167.836 -164.365 -160.900 -157.479 -154.151 -150.905 -147.692 -144.479 -141.286 -138.212 -135.373 -132.834 -130.591 -128.568 -126.654 -124.756 -122.777 -120.412 -116.765 -110.497 -99.917 -83.401 -62.484 -42.581 -27.737 -18.111 -12.626 -10.292 -9.790 -9.860 -9.922 -9.916 -9.880 -9.831 -9.779 -9.729 -9.695 -9.695
-1770.944 -1700.115 -1627.966 -1543.443 -1450.824 -1354.639 -1257.341 -1184.767 -1120.956 -1064.655 -1015.687 -971.617 -930.126 -889.912 -850.312 -811.041 -772.014 -733.192 -694.621 -656.937 -621.952 -591.751 -566.631 -544.921 -524.918 -506.002 -488.608 -473.819 -462.053 -452.220 -442.854 -433.188 -422.914 -411.932 -400.423 -388.772 -377.664 -367.858 -359.344 -351.435 -343.935 -337.287 -331.631 -326.448 -320.986 -314.680 -307.426 -299.664 -292.285 -286.315 -282.457 -280.788 -280.868 -281.984 -283.025 -282.652 -280.503 -277.686 -275.458 -273.979 -272.616 -270.851 -268.573 -265.862 -262.757 -259.135 -254.955 -250.648 -246.950 -244.211 -242.152 -240.259 -238.094 -235.375 -232.124 -228.536 -224.614 -220.153 -215.068 -209.578 -204.206 -199.708 -196.557 -194.391 -192.429 -190.246 -187.832 -185.285 -182.605 -179.648 -176.301 -172.682 -169.065 -165.631 -162.351 -159.073 -155.690 -152.205 -148.698 -145.242 -141.905 -138.825 -136.121 -133.754 -131.612 -129.616 -127.703 -125.777 -123.685 -121.103 -117.151 -110.009 -97.350 -78.588 -57.176 -38.447 -25.034 -16.504 -11.857 -10.094 -9.823 -9.896 -9.921 -9.895 -9.848 -9.794 -9.739 -9.686 -9.652 -9.652
-1773.448 -1672.859 -1575.902 -1498.896 -1409.031 -1327.445 -1247.200 -1177.274 -1113.648 -1055.125 -1004.476 -959.730 -918.192 -878.122 -838.692 -799.628 -760.842 -722.329 -684.262 -647.455 -613.861 -585.557 -562.582 -542.901 -524.586 -506.936 -490.277 -475.668 -463.893 -454.405 -445.840 -437.054 -427.278 -416.195 -404.118 -391.822 -380.468 -371.055 -363.363 -356.283 -349.244 -342.475 -336.238 -330.389 -324.450 -317.953 -310.840 -303.605 -297.082 -291.930 -288.305 -286.083 -285.127 -285.215 -285.574 -284.763 -281.915 -277.895 -274.428 -272.248 -270.620 -268.525 -265.711 -262.538 -259.236 -255.627 -251.591 -247.500 -243.963 -241.244 -239.135 -237.313 -235.465 -233.237 -230.475 -227.322 -223.825 -219.742 -214.912 -209.564 -204.263 -199.785 -196.650 -194.590 -192.895 -191.105 -189.104 -186.897 -184.438 -181.552 -178.126 -174.341 -170.578 -167.090 -163.818 -160.496 -156.940 -153.192 -149.421 -145.757 -142.286 -139.172 -136.544 -134.309 -132.279 -130.359 -128.484 -126.536 -124.265 -121.201 -116.498 -108.204 -93.649 -73.156 -51.736 -34.426 -22.511 -15.110 -11.286 -9.994 -9.864 -9.921 -9.912 -9.868 -9.813 -9.755 -9.697 -9.643 -9.607 -9.607
-1780.364 -1679.721 -1578.625 -1475.712 -1397.347 -1321.123 -1242.897 -1168.679 -1106.754 -1047.877 -995.106 -948.555 -906.391 -866.294 -827.072 -788.308 -749.876 -711.923 -674.898 -639.809 -608.386 -582.149 -560.819 -542.485 -525.419 -508.983 -493.374 -479.294 -467.430 -457.784 -449.588 -441.655 -432.695 -421.969 -409.844 -397.459 -386.220 -377.117 -369.867 -363.297 -356.568 -349.567 -342.554 -335.739 -329.009 -322.066 -314.835 -307.736 -301.556 -296.801 -293.315 -290.757 -289.051 -288.220 -287.802 -286.546 -283.377 -278.722 -274.269 -271.139 -268.752 -265.922 -262.397 -258.759 -255.347 -251.928 -248.322 -244.801 -241.748 -239.218 -237.028 -235.053 -233.157 -231.056 -228.562 -225.749 -222.610 -218.859 -214.328 -209.284 -204.289 -200.034 -196.976 -194.932 -193.366 -191.891 -190.311 -188.494 -186.289 -183.494 -180.038 -176.169 -172.291 -168.647 -165.177 -161.632 -157.853 -153.906 -149.959 -146.136 -142.531 -139.320 -136.659 -134.478 -132.567 -130.755 -128.894 -126.830 -124.238 -120.428 -114.531 -104.875 -89.047 -67.918 -47.068 -31.085 -20.426 -14.011 -10.913 -9.980 -9.911 -9.932 -9.896 -9.838 -9.776 -9.714 -9.654 -9.598 -9.562 -9.562
-1785.434 -1684.811 -1582.440 -1479.620 -1388.659 -1314.764 -1239.563 -1165.811 -1102.957 -1043.548 -988.418 -939.317 -895.334 -854.724 -815.590 -777.131 -739.214 -702.168 -666.711 -633.866 -604.857 -580.481 -560.264 -542.735 -526.575 -511.213 -496.681 -483.329 -471.589 -461.735 -453.622 -446.418 -438.643 -429.090 -417.862 -406.172 -395.395 -386.337 -378.820 -371.985 -365.045 -357.693 -350.079 -342.474 -334.935 -327.334 -319.621 -312.140 -305.665 -300.758 -297.183 -294.362 -292.064 -290.366 -289.091 -287.402 -284.281 -279.602 -274.518 -270.239 -266.589 -262.630 -258.266 -254.237 -250.927 -248.011 -245.147 -242.397 -239.929 -237.684 -235.495 -233.302 -231.065 -228.673 -226.101 -223.442 -220.605 -217.241 -213.170 -208.660 -204.230 -200.412 -197.528 -195.497 -194.008 -192.786 -191.574 -190.084 -188.028 -185.217 -181.712 -177.817 -173.856 -169.988 -166.188 -162.338 -158.361 -154.280 -150.197 -146.232 -142.523 -139.240 -136.539 -134.412 -132.673 -131.036 -129.188 -126.906 -123.914 -119.487 -112.692 -102.057 -85.571 -64.423 -44.167 -29.017 -19.112 -13.340 -10.731 -10.015 -9.951 -9.932 -9.874 -9.805 -9.737 -9.673 -9.610 -9.553 -9.515 -9.515
-1754.950 -1676.468 -1584.150 -1483.492 -1381.348 -1308.056 -1236.158 -1166.116 -1102.579 -1044.129 -986.654 -933.692 -886.427 -843.996 -804.387 -766.147 -728.889 -693.049 -659.453 -628.910 -602.109 -579.301 -559.947 -543.001 -527.537 -513.043 -499.399 -486.739 -475.309 -465.420 -457.284 -450.575 -444.094 -436.376 -426.959 -416.664 -406.636 -397.522 -389.328 -381.640 -373.990 -366.148 -358.158 -350.112 -341.945 -333.547 -324.986 -316.671 -309.396 -303.851 -299.886 -296.758 -293.999 -291.607 -289.547 -287.332 -284.158 -279.550 -274.039 -268.683 -263.736 -258.692 -253.576 -249.130 -245.840 -243.478 -241.544 -239.727 -237.913 -236.024 -233.946 -231.582 -228.899 -225.980 -223.049 -220.308 -217.658 -214.743 -211.346 -207.632 -203.976 -200.720 -198.078 -196.091 -194.654 -193.571 -192.557 -191.221 -189.175 -186.305 -182.833 -179.060 -175.144 -171.123 -167.008 -162.818 -158.568 -154.257 -149.929 -145.754 -141.966 -138.735 -136.129 -134.124 -132.564 -131.113 -129.312 -126.840 -123.548 -118.953 -112.100 -101.312 -84.616 -63.408 -43.274 -28.324 -18.640 -13.111 -10.705 -10.065 -9.976 -9.922 -9.846 -9.769 -9.698 -9.630 -9.565 -9.506 -9.468 -9.468
-1722.107 -1659.254 -1567.095 -1474.609 -1382.597 -1302.109 -1237.682 -1173.214 -1109.563 -1049.257 -989.406 -932.664 -880.928 -834.991 -793.784 -755.401 -718.853 -684.393 -652.725 -624.332 -599.455 -578.004 -559.442 -543.035 -528.147 -514.330 -501.378 -489.306 -478.262 -468.498 -460.333 -453.827 -448.302 -442.444 -435.310 -426.988 -418.088 -409.081 -400.199 -391.492 -382.923 -374.470 -366.125 -357.773 -349.082 -339.808 -330.176 -320.786 -312.502 -306.144 -301.679 -298.245 -295.151 -292.231 -289.383 -286.282 -282.441 -277.473 -271.604 -265.631 -259.981 -254.430 -248.932 -244.045 -240.442 -238.309 -237.188 -236.351 -235.289 -233.860 -232.035 -229.688 -226.743 -223.375 -219.969 -216.861 -214.111 -211.516 -208.845 -206.053 -203.267 -200.635 -198.304 -196.395 -194.911 -193.712 -192.553 -191.090 -189.002 -186.275 -183.195 -179.955 -176.490 -172.650 -168.374 -163.749 -158.963 -154.164 -149.451 -145.015 -141.149 -138.024 -135.593 -133.727 -132.265 -130.893 -129.119 -126.547 -123.090 -118.552 -112.066 -101.628 -85.004 -63.662 -43.365 -28.309 -18.597 -13.104 -10.748 -10.110 -9.986 -9.903 -9.814 -9.732 -9.657 -9.586 -9.520 -9.459 -9.420 -9.420
-1692.273 -1632.448 -1549.916 -1464.055 -1383.353 -1305.414 -1243.582 -1180.980 -1118.233 -1056.859 -996.040 -935.951 -879.433 -828.790 -784.501 -745.128 -709.071 -675.993 -646.210 -619.807 -596.632 -576.385 -558.588 -542.732 -528.368 -515.104 -502.704 -491.136 -480.493 -470.953 -462.800 -456.270 -451.146 -446.557 -441.491 -435.392 -428.086 -419.621 -410.374 -400.862 -391.427 -382.206 -373.221 -364.303 -354.962 -344.850 -334.268 -323.928 -314.775 -307.749 -302.878 -299.194 -295.827 -292.399 -288.642 -284.323 -279.308 -273.541 -267.263 -261.071 -255.364 -249.983 -244.663 -239.632 -235.676 -233.468 -232.780 -232.650 -232.248 -231.305 -229.828 -227.718 -224.865 -221.389 -217.605 -213.906 -210.659 -208.018 -205.839 -203.860 -201.922 -199.971 -198.048 -196.259 -194.639 -193.092 -191.479 -189.659 -187.534 -185.193 -182.847 -180.514 -177.924 -174.687 -170.504 -165.433 -159.927 -154.485 -149.379 -144.762 -140.828 -137.710 -135.356 -133.579 -132.144 -130.711 -128.833 -126.140 -122.526 -117.861 -111.388 -101.018 -84.403 -63.090 -42.911 -28.007 -18.429 -13.048 -10.763 -10.135 -9.983 -9.877 -9.779 -9.692 -9.614 -9.542 -9.474 -9.412 -9.371 -9.371
-1670.662 -1607.064 -1542.865 -1473.387 -1392.465 -1313.857 -1247.763 -1187.683 -1126.684 -1064.756 -1003.525 -941.651 -881.576 -826.156 -777.626 -735.989 -699.706 -667.719 -639.678 -615.120 -593.484 -574.338 -557.306 -542.040 -528.195 -515.420 -503.493 -492.378 -482.137 -472.879 -464.803 -458.172 -453.047 -448.976 -445.143 -440.747 -435.068 -427.650 -418.733 -409.003 -398.946 -388.783 -378.719 -368.767 -358.559 -347.805 -336.734 -325.926 -316.305 -308.888 -303.725 -299.802 -296.142 -292.192 -287.553 -282.078 -275.906 -269.246 -262.406 -255.928 -250.297 -245.445 -240.850 -236.323 -232.528 -230.303 -229.596 -229.549 -229.366 -228.718 -227.535 -225.730 -223.211 -219.977 -216.097 -211.883 -207.973 -204.947 -202.873 -201.393 -200.107 -198.740 -197.190 -195.537 -193.840 -192.019 -190.018 -187.903 -185.796 -183.847 -182.127 -180.493 -178.601 -175.955 -172.054 -166.839 -160.906 -155.029 -149.680 -145.015 -141.067 -137.898 -135.532 -133.808 -132.383 -130.815 -128.699 -125.808 -121.975 -116.858 -109.673 -98.514 -81.446 -60.414 -41.025 -26.882 -17.841 -12.811 -10.715 -10.136 -9.968 -9.846 -9.741 -9.651 -9.571 -9.497 -9.427 -9.364 -9.323 -9.323
-1645.072 -1581.467 -1517.436 -1453.002 -1388.429 -1322.936 -1251.716 -1193.796 -1134.662 -1073.449 -1010.665 -947.670 -885.710 -826.839 -774.038 -728.967 -691.181 -659.498 -632.860 -610.020 -589.864 -571.809 -555.585 -540.959 -527.640 -515.330 -503.853 -493.191 -483.378 -474.460 -466.549 -459.866 -454.598 -450.532 -447.017 -443.302 -438.638 -432.391 -424.454 -415.163 -404.814 -393.718 -382.390 -371.184 -360.066 -348.944 -337.888 -327.157 -317.495 -309.885 -304.440 -300.217 -296.229 -291.829 -286.534 -280.222 -273.179 -265.748 -258.238 -251.236 -245.520 -241.243 -237.675 -234.250 -231.302 -229.364 -228.344 -227.744 -227.184 -226.459 -225.382 -223.781 -221.568 -218.655 -214.922 -210.543 -206.229 -202.834 -200.668 -199.373 -198.360 -197.160 -195.610 -193.900 -192.217 -190.472 -188.535 -186.480 -184.516 -182.795 -181.262 -179.670 -177.738 -175.149 -171.492 -166.606 -160.902 -155.095 -149.752 -145.137 -141.281 -138.173 -135.832 -134.138 -132.715 -131.049 -128.752 -125.701 -121.632 -115.856 -107.374 -94.537 -76.395 -55.776 -37.775 -24.941 -16.825 -12.409 -10.623 -10.122 -9.945 -9.811 -9.702 -9.609 -9.527 -9.451 -9.380 -9.315 -9.273 -9.273
-1618.664 -1555.654 -1491.908 -1427.967 -1364.874 -1304.454 -1253.510 -1202.471 -1143.730 -1081.330 -1017.410 -953.398 -890.287 -829.486 -773.429 -724.542 -683.938 -651.355 -625.538 -604.326 -585.737 -568.869 -553.514 -539.539 -526.729 -514.875 -503.878 -493.726 -484.409 -475.914 -468.281 -461.666 -456.266 -451.982 -448.271 -444.503 -440.149 -434.729 -427.865 -419.286 -408.882 -397.049 -384.632 -372.325 -360.466 -349.196 -338.452 -328.164 -318.760 -311.050 -305.250 -300.640 -296.314 -291.580 -285.874 -279.016 -271.344 -263.290 -255.176 -247.688 -241.901 -238.136 -235.547 -233.371 -231.565 -230.110 -228.736 -227.326 -226.010 -224.850 -223.637 -222.077 -219.980 -217.200 -213.597 -209.286 -204.936 -201.501 -199.411 -198.231 -197.186 -195.705 -193.704 -191.627 -189.912 -188.479 -186.985 -185.308 -183.590 -181.958 -180.283 -178.270 -175.767 -172.772 -169.178 -164.823 -159.798 -154.502 -149.423 -144.970 -141.320 -138.410 -136.150 -134.448 -133.017 -131.370 -129.080 -125.976 -121.669 -115.142 -105.045 -89.994 -70.406 -50.218 -33.818 -22.509 -15.535 -11.921 -10.524 -10.104 -9.916 -9.774 -9.661 -9.566 -9.482 -9.404 -9.332 -9.266 -9.224 -9.224
-1591.610 -1528.652 -1465.521 -1404.965 -1352.361 -1301.348 -1252.773 -1203.001 -1147.783 -1086.414 -1021.938 -957.475 -893.979 -832.290 -774.165 -722.116 -678.271 -643.911 -618.304 -598.535 -581.528 -565.862 -551.314 -537.876 -525.484 -514.082 -503.641 -494.106 -485.389 -477.417 -470.179 -463.757 -458.289 -453.720 -449.639 -445.552 -441.126 -436.098 -430.013 -422.078 -411.690 -399.262 -385.959 -372.771 -360.334 -349.012 -338.694 -329.041 -320.114 -312.432 -306.281 -301.255 -296.617 -291.665 -285.735 -278.539 -270.433 -261.930 -253.417 -245.703 -239.994 -236.609 -234.676 -233.402 -232.462 -231.399 -229.806 -227.794 -225.799 -224.095 -222.577 -220.898 -218.723 -215.833 -212.124 -207.757 -203.474 -200.323 -198.650 -197.770 -196.724 -194.964 -192.567 -190.150 -188.292 -186.963 -185.724 -184.299 -182.718 -181.075 -179.211 -176.801 -173.774 -170.348 -166.672 -162.680 -158.300 -153.644 -149.029 -144.911 -141.581 -138.937 -136.785 -135.061 -133.607 -132.016 -129.800 -126.633 -122.008 -114.659 -102.849 -85.579 -64.711 -45.005 -30.045 -20.127 -14.275 -11.466 -10.440 -10.083 -9.882 -9.735 -9.619 -9.522 -9.436 -9.357 -9.283 -9.217 -9.174 -9.174
-1564.465 -1507.465 -1452.165 -1396.726 -1343.933 -1295.635 -1248.280 -1198.551 -1144.253 -1084.371 -1021.730 -958.215 -895.218 -833.519 -774.500 -720.504 -674.437 -638.704 -613.111 -594.265 -578.325 -563.441 -549.327 -536.103 -523.945 -512.996 -503.233 -494.461 -486.458 -479.087 -472.301 -466.122 -460.614 -455.727 -451.174 -446.618 -441.889 -436.915 -431.286 -423.842 -413.464 -400.493 -386.425 -372.522 -359.607 -348.248 -338.377 -329.448 -321.169 -313.748 -307.460 -302.162 -297.324 -292.285 -286.302 -278.965 -270.619 -261.873 -253.190 -245.415 -239.739 -236.470 -234.758 -233.777 -233.078 -232.124 -230.514 -228.383 -226.148 -224.109 -222.272 -220.343 -217.933 -214.780 -210.753 -206.075 -201.760 -199.031 -198.011 -197.659 -196.872 -195.213 -192.905 -190.490 -188.395 -186.641 -184.970 -183.205 -181.415 -179.697 -177.833 -175.396 -172.244 -168.639 -164.872 -161.015 -157.028 -152.925 -148.878 -145.252 -142.314 -139.954 -137.947 -136.235 -134.735 -133.111 -130.833 -127.455 -122.426 -114.270 -100.876 -81.754 -60.084 -40.949 -27.116 -18.287 -13.353 -11.161 -10.383 -10.055 -9.846 -9.695 -9.576 -9.477 -9.389 -9.309 -9.234 -9.167 -9.123 -9.123
